-1.61391059346,1.26387890471,20.4736815218
-1.61319384106,1.26913237357,20.4733180151
-1.61258790795,1.27383503854,20.4724552233
-1.61209580733,1.27796481418,20.4710946745
-1.61137093275,1.28328001936,20.4707223649
-1.6105237352,1.28922962596,20.4708450344
-1.61002816229,1.29338854155,20.4694748855
-1.6091716538,1.29940642148,20.4695927727
-1.60855227271,1.30421211928,20.4687136735
-1.65676134668,0.745900452165,20.8382020936
-1.65592771003,0.751213531343,20.8391193446
-1.65516457191,0.756771490151,20.8386299382
-1.65447683019,0.762543112558,20.8367284853
-1.65378908848,0.768314734965,20.8348270324
-1.65302025629,0.773917157448,20.8343282429
-1.65224840083,0.77954161023,20.8338274921
-1.65155795472,0.785335928278,20.8319185621
-1.65095298252,0.791266001328,20.8286126906
-1.65026389126,0.797048949288,20.8267075066
-1.64888570875,0.808614845208,20.8228971384
-1.6481966175,0.814397793168,20.8209919543
-1.64612934373,0.831746637048,20.815276402
-1.64534393977,0.837484790711,20.8147381926
-1.64465349366,0.843279108759,20.8128292626
-1.6441607045,0.849117448665,20.8082066917
-1.64248002241,0.860662751662,20.8084597908
-1.64189170923,0.866456380951,20.8051935428
-1.64099114257,0.872297828909,20.8059895353
-1.64019091611,0.878150231852,20.8054297648
-1.6394963733,0.883978930018,20.8035095083
-1.63891162701,0.889749407565,20.8002401372
-1.63810728767,0.895636326351,20.7996689955
-1.63741274486,0.901465024518,20.797748739
-1.63648902613,0.907480300472,20.7985199075
-1.63579172506,0.913332146275,20.7965920251
-1.63800716543,0.916293830602,20.7614504594
-1.63901801781,0.920053562298,20.740805159
-1.63868090344,0.925098722304,20.7356303096
-1.63834745593,0.930089004907,20.7305117482
-1.6380176158,0.935025300636,20.7254485615
-1.63769132481,0.939908480854,20.7204398556
-1.63706155161,0.945193623581,20.7186986728
-1.63684483426,0.949836568201,20.7126922992
-1.63580200521,0.955763909033,20.7152163071
-1.64871618729,0.959205200733,20.5368350764
-1.64820448986,0.963132357531,20.5361231465
-1.64775172629,0.966932011232,20.534871356
-1.64729896273,0.970731664934,20.5336195654
-1.64678477512,0.97467877191,20.5329025653
-1.64633142704,0.978483330855,20.5316491587
-1.64575240677,0.982603638613,20.531462997
-1.64529788515,0.986418046138,20.5302063458
-1.64471467972,0.990569640831,20.5300159564
-1.64419379363,0.994568167977,20.5292896157
-1.64367155214,0.998577099681,20.5285613851
-1.6432146651,1.00241135813,20.527298194
-1.64262298176,1.00662633963,20.5270992241
-1.64223298547,1.01027498361,20.5253015836
-1.64163796486,1.0145160126,20.5250971381
-1.64117928754,1.01836529536,20.5238289973
-1.64057994872,1.02263862181,20.5236201595
-1.6400488596,1.02671590299,20.522878765
-1.63973181703,1.0301349568,20.5205502166
-1.63920031273,1.03421671547,20.5198057728
-1.63852079941,1.03877721525,20.5201136506
-1.6380591069,1.0426518019,20.5188371734
-1.63752260171,1.0467715325,20.5180865543
-1.63706030139,1.05065121991,20.5168083967
-1.63659800108,1.05453090733,20.5155302392
-1.63605886264,1.05867172758,20.5147742714
-1.63544044369,1.06309113463,20.5145395664
-1.63497631033,1.06698620521,20.5132563409
-1.63443288515,1.0711599495,20.5124943623
-1.63388801969,1.07534475578,20.5117303642
-1.6334226562,1.07925014974,20.5104437377
-1.63295729272,1.0831555437,20.5091571111
-1.63240974622,1.08736182048,20.5083876709
-1.6317775032,1.09188697008,20.5081344101
-1.63131028224,1.09580795214,20.5068426481
-1.63075835311,1.1000478965,20.5060670492
-1.63020495141,1.10429915324,20.5052893809
-1.62965007123,1.10856176771,20.504509635
-1.62909370664,1.11283578547,20.5037278031
-1.62844748107,1.11746567986,20.5034600049
-1.62797650034,1.12141821444,20.502157848
-1.62741564661,1.12572671801,20.5013697077
-1.62694403337,1.12968456078,20.500065802
-1.62638103695,1.13400997489,20.4992737885
-1.62581652427,1.1383470382,20.498479642
-1.6252504892,1.14269579786,20.4976833538
-1.62477696816,1.14666965109,20.4963741734
-1.62430344713,1.15064350432,20.495064993
-1.62363902566,1.15541319496,20.494771597
-1.62306774344,1.15980272364,20.4939670542
-1.6224949122,1.16420415433,20.4931603299
-1.62192052565,1.16861753552,20.4923514153
-1.62134457744,1.17304291595,20.4915403014
-1.62086719413,1.17704918186,20.4902204427
-1.62028902804,1.18149206411,20.4894053238
-1.6196072989,1.18639154396,20.4890936737
-1.61902503993,1.19086541401,20.4882736723
-1.61833704284,1.19581073357,20.4879576387
-1.61785573374,1.19984994527,20.4866269261
-1.61726867338,1.20436070747,20.4858001628
-1.6167867037,1.20840546289,20.4844676238
-1.61619736727,1.21293418288,20.4836367566
-1.61549778362,1.21796759213,20.4833062001
-1.61501382126,1.22202907039,20.4819681518
-1.61441959822,1.22659534125,20.4811303953
-1.6138237328,1.23117423292,20.4802903232
-1.61322621818,1.23576579778,20.4794479261
-1.61262704749,1.24037008851,20.4786031942
-1.61214040245,1.24445408017,20.4772577289
-1.61165375741,1.24853807183,20.4759122636
-1.61105157313,1.25316647623,20.475061453
-1.61044771521,1.25780774427,20.4742082777
-1.60984217667,1.26246192964,20.4733527279
-1.60923495047,1.26712908635,20.4724947937
-1.60850613211,1.27238429763,20.4721284783
-1.6078944871,1.27708493249,20.4712652292
-1.60728112788,1.28179874157,20.4703995607
-1.60641904874,1.28772534958,20.4705205222
-1.60580015285,1.29248072463,20.4696489246
-1.60505338656,1.29786700371,20.4692704241
-1.60417448153,1.30391249217,20.4693876082
-1.65084041655,0.745712526658,20.8377255641
-1.64998530507,0.751014507881,20.8386391664
-1.64938810634,0.756965221329,20.8353459561
-1.64852564605,0.762321555154,20.8362520418
-1.64774801143,0.767901268353,20.8357570199
-1.64696732494,0.773502879497,20.8352600554
-1.64618356857,0.77912651775,20.8347611366
-1.6456847863,0.785216135574,20.8300526612
-1.64490005117,0.790851723377,20.8295445031
-1.64273133804,0.808098107991,20.8252164868
-1.64204089193,0.813892426039,20.8233075569
-1.64076550364,0.825549411137,20.8181133985
-1.64007641238,0.831332359097,20.8162082144
-1.63927910751,0.837069698231,20.8156718371
-1.6385886614,0.842864016279,20.8137629071
-1.63811962746,0.848703982052,20.8091366793
-1.63628871124,0.860246711956,20.8107597977
-1.63582687697,0.866041288472,20.8061271873
-1.63490236753,0.871881097726,20.8069268656
-1.63420919568,0.877698290611,20.8050103996
-1.63327461039,0.883607447634,20.8058088211
-1.63282285198,0.889332676381,20.8011774675
-1.63131192741,0.901047469121,20.7986879233
-1.63036398036,0.907061086828,20.7994628215
-1.62953783356,0.91301758718,20.7988867242
-1.63264939519,0.915478543257,20.7575178413
-1.63279972043,0.920215573803,20.7474426911
-1.63237968473,0.925426023703,20.7433337398
-1.63256734234,0.934510851688,20.7252101325
-1.64493544226,0.958553851586,20.5358329048
-1.64442086065,0.962465040429,20.5351224309
-1.64396984159,0.966250054001,20.5338754635
-1.64345335648,0.97017616984,20.5331615587
-1.64293554127,0.974112396577,20.5324458153
-1.64241639081,0.978058773321,20.5317282264
-1.64182799754,0.982172657404,20.5315425097
-1.64130539775,0.986144790189,20.5308209653
-1.64085087613,0.989959197714,20.5295643141
-1.64032633271,0.993946569626,20.5288392707
-1.63972944983,0.998123123227,20.5286450813
-1.63927315646,1.0019523996,20.5273835316
-1.6388890254,1.00559290459,20.5255925204
-1.63843332414,1.00941721182,20.5243326077
-1.63768308851,1.01403946818,20.5251856808
-1.6372250095,1.01788372977,20.5239191942
-1.63661611128,1.02215020769,20.5237108654
-1.63615683408,1.02600452475,20.5224410661
-1.63577426474,1.02963738931,20.5206448139
-1.63523827966,1.03371315889,20.5199014674
-1.63470089077,1.03779960346,20.519156174
-1.63416209253,1.04189676501,20.518408926
-1.6336218794,1.04600468577,20.5176597157
-1.63316079309,1.04987418507,20.5163849145
-1.63261855329,1.05399799483,20.5156320582
-1.63215686077,1.05787258149,20.5143555811
-1.63161258549,1.06201234969,20.5135990621
-1.63115028517,1.0658920371,20.5123209045
-1.63068798485,1.06977172452,20.5110427469
-1.62988582572,1.07478077118,20.5118378859
-1.62942107811,1.07868099661,20.5105529621
-1.6289563305,1.08258122205,20.5092680383
-1.62840420758,1.08678116364,20.5084997647
-1.6279388441,1.09068655761,20.5072131382
-1.62729556009,1.09521452981,20.5069570927
-1.62682895994,1.09913030204,20.5056670471
-1.62636235978,1.10304607426,20.5043770014
-1.62571316121,1.10761904313,20.5041127168
-1.62515302909,1.11188039998,20.5033324414
-1.62468456157,1.11581184343,20.5020372329
-1.62402826947,1.12043731349,20.5017656285
-1.62346362993,1.12473296176,20.5009790742
-1.62289747582,1.12904013252,20.50019041
-1.6224264951,1.1329926671,20.4988882531
-1.62195551437,1.13694520168,20.4975860961
-1.62138657455,1.14127455775,20.4967918161
-1.62091496131,1.14523240052,20.4954879103
-1.62014407012,1.15035882602,20.4957053041
-1.61967054908,1.15433267925,20.4943961238
-1.6190954512,1.15870889516,20.4935932467
-1.6186212908,1.16268811404,20.4922822986
-1.61794058371,1.16749687657,20.4919809704
-1.61736080144,1.17190873845,20.4911715535
-1.61688471254,1.17590414155,20.4898552736
-1.61630270975,1.18033340628,20.4890418721
-1.61550455085,1.18565927602,20.4892352764
-1.61491748647,1.19012603979,20.4884165875
-1.61432881724,1.19460501433,20.4875956606
-1.61395881014,1.19817138251,20.4857660607
-1.61314663783,1.20359979654,20.4859470559
-1.61266532873,1.20763900824,20.4846163432
-1.61218401963,1.21167821995,20.4832856306
-1.61158917499,1.21620521616,20.4824542815
-1.61087787006,1.2212407017,20.4821209252
-1.61027876599,1.22579959308,20.4812845337
-1.60979480363,1.22986107133,20.4799464854
-1.60919337808,1.23443815076,20.4791059389
-1.60859029024,1.23902788087,20.4782630691
-1.6079855332,1.24363031416,20.4774178665
-1.60749956162,1.2477086541,20.4760742632
-1.606892455,1.25232949511,20.4752248561
-1.60640580996,1.25641348677,20.4738793908
-1.60579634304,1.26105281998,20.4730257591
-1.60506099714,1.26626918106,20.4726624507
-1.6044471083,1.27094164323,20.4718035546
-1.60383150615,1.27562714585,20.4709422613
-1.60321418351,1.28032574358,20.4700785609
-1.60246644843,1.28563266897,20.469704447
-1.60158404306,1.29157546275,20.4698224739
-1.60069415555,1.2975686469,20.4699415016
-1.59979669036,1.30361286505,20.4700615428
-1.64513365265,0.745968856945,20.8344722016
-1.64845208215,0.760352717512,20.7754490563
-1.64377677082,0.757355994629,20.830720725
-1.64660878892,0.769701684596,20.7802357638
-1.64544783793,0.774074575355,20.7856975072
-1.64462768513,0.77914127035,20.7863626992
-1.64370856438,0.784105437611,20.7882610203
-1.64258783962,0.78886074934,20.7926713043
-1.63402348103,0.830918081146,20.8171400269
-1.63333438978,0.836701029106,20.8152348428
-1.63264529852,0.842483977066,20.8133296587
-1.63220041528,0.848314013634,20.808714167
-1.62678526001,0.877623258052,20.8197983063
-1.62575438596,0.900313456666,20.7942778178
-1.62928360597,0.903311957314,20.7513661475
-1.62911785913,0.908388795479,20.7449558932
-1.62798924051,0.914174449123,20.7477875148
-1.62867498459,0.918427564184,20.7335224029
-1.64097880277,0.958283049159,20.5364420057
-1.64052836223,0.962063207726,20.5351966378
-1.6401475441,0.965708176075,20.5334185614
-1.63955710137,0.969763917344,20.5332383793
-1.63903494152,0.973694551978,20.5325236552
-1.63843934603,0.977786574305,20.5323404685
-1.63798658247,0.981586228007,20.531088678
-1.63746037284,0.98554734791,20.5303684106
-1.63693280281,0.989518708417,20.5296462811
-1.63640386711,0.99350034929,20.5289222823
-1.63594934549,0.997314756816,20.5276656311
-1.63541844973,1.00131166146,20.5269381271
-1.63488617612,1.00531893945,20.526208735
-1.63435251928,1.00933663122,20.5254774474
-1.63381747381,1.01336477742,20.5247442569
-1.63328103429,1.0174034189,20.5240091561
-1.63282355205,1.0212426724,20.5227443194
-1.6323660698,1.0250819259,20.5214794828
-1.63190858755,1.02892117941,20.5202146461
-1.63128659659,1.03321091774,20.519996912
-1.63082791926,1.0370602005,20.5187287712
-1.63036924194,1.04090948326,20.5174606304
-1.62974159014,1.04524185599,20.5172351129
-1.62919628885,1.04934877647,20.5164853459
-1.62873580715,1.05321320175,20.5152122164
-1.62818846927,1.05733598107,20.5144588088
-1.62763969219,1.06146960109,20.5137034201
-1.62717799968,1.06534418775,20.512426943
-1.62671630716,1.06921877441,20.5111504659
-1.62616486958,1.07337347947,20.5103897274
-1.6256119782,1.07753913798,20.5096269834
-1.62514906848,1.0814239396,20.508347141
-1.62450181094,1.08590348911,20.5080954468
-1.62394452346,1.09010226916,20.5073266381
-1.62347977585,1.0940024946,20.5060417143
-1.62292039548,1.09821757151,20.5052691653
-1.62235953057,1.10244383478,20.5044945659
-1.6217005444,1.10700911689,20.5042309458
-1.62113581271,1.11126398398,20.5034518675
-1.62066796931,1.11519018977,20.5021583845
-1.6200018231,1.11980782027,20.5018874666
-1.61953272979,1.12374451537,20.5005905279
-1.6189628323,1.1280388415,20.4998034538
-1.61839140819,1.13234467115,20.4990142714
-1.61792105829,1.13629191176,20.4977138585
-1.61734747058,1.14061458519,20.4969208151
-1.61687648985,1.14456711977,20.4956186582
-1.61619566703,1.14929481057,20.4953283295
-1.61572341956,1.1532579758,20.4940226703
-1.61493045805,1.15842383248,20.4942344223
-1.61445629764,1.16240305136,20.4929234743
-1.61376431265,1.167211042,20.4926238822
-1.61328886832,1.17120103575,20.4913093844
-1.61270277958,1.17561791946,20.4904990571
-1.61211509953,1.18004679563,20.4896865296
-1.61163836431,1.18404762277,20.4883684627
-1.61116162908,1.1880484499,20.4870503958
-1.61034244643,1.19340586926,20.4872356562
-1.60974833588,1.19788320698,20.4864142379
-1.60926899772,1.20190587834,20.4850889745
-1.60855523576,1.20687465172,20.4847646555
-1.60807458544,1.21090833488,20.4834357643
-1.60747492372,1.21542807121,20.4826057604
-1.60687361596,1.219960214,20.4817734781
-1.60639164627,1.22400496943,20.4804409391
-1.60578802328,1.22855512878,20.4796045378
-1.60518273881,1.23311781246,20.4787658343
-1.60469944251,1.2371737011,20.4774296274
-1.60396715794,1.24228096027,20.4770814825
-1.60348252768,1.24634804358,20.4757415876
-1.60287154768,1.25095423266,20.4748940684
-1.60225887665,1.25557317049,20.4740442036
-1.60164450754,1.26020491006,20.4731919833
-1.60102843331,1.26484950467,20.4723373977
-1.60027981761,1.27007643249,20.4719721735
-1.59965926613,1.27475420011,20.4711123154
-1.5989036855,1.28003072218,20.4707421362
-1.59827860318,1.28474205716,20.4698769472
-1.5975159667,1.29006882445,20.4695017424
-1.59647335176,1.29665364984,20.4701151278
-1.59555921314,1.30268541182,20.4702357371
-1.64296935927,0.759977466073,20.7762930885
-1.64243758848,0.765384366823,20.7734026502
-1.64086418747,0.768992988026,20.7834855322
-1.63762746387,0.783151056727,20.7940978499
-1.62980095284,0.825338513734,20.8077968397
-1.62649930569,0.896297885065,20.7336126735
-1.62599496762,0.90148130961,20.7307879382
-1.62645887471,0.905996703886,20.7194229674
-1.62584344939,0.911161437267,20.7177214532
-1.63716904908,0.957762250638,20.5359791208
-1.6367934966,0.961403399745,20.5342045885
-1.63627047319,0.965303222291,20.5334947583
-1.63567084165,0.969352722433,20.5333150028
-1.6352204011,0.973132881,20.5320696349
-1.63476996056,0.976913039567,20.5308242669
-1.63431952002,0.980693198135,20.529578899
-1.63379130397,0.984632821402,20.5288603928
-1.63334028491,0.988417834974,20.5276134254
-1.63257149767,0.992883915383,20.5284746299
-1.63203760809,0.996864759429,20.5277500525
-1.63150233646,1.00085590839,20.5270235994
-1.63104781484,1.00467031592,20.5257669482
-1.63059329322,1.00848472344,20.524510297
-1.63005545608,1.01249610426,20.5237787037
-1.62951622306,1.01651789599,20.5230452117
-1.62897558872,1.02055013921,20.5223098135
-1.62843354761,1.02459287473,20.5215725018
-1.62806300197,1.02820869196,20.5197867141
-1.62751977353,1.03226139163,20.5190461197
-1.62697512972,1.03632465055,20.5183035956
-1.62651764747,1.04016390406,20.517038759
-1.62588157379,1.04448301169,20.5168127285
-1.62542289646,1.04833229445,20.5155445877
-1.62487337329,1.05243251425,20.5147945709
-1.62432241085,1.05654347309,20.5140425896
-1.62377000347,1.0606652132,20.5132886363
-1.62330952177,1.06452963849,20.5120155068
-1.62284904008,1.06839406377,20.5107423773
-1.62219913858,1.07281579402,20.5104983049
-1.62173744606,1.07669038068,20.5092218278
-1.621179454,1.08085492183,20.5084585504
-1.62071715368,1.08473460925,20.5071803928
-1.62005905077,1.08921698579,20.5069259507
-1.61949662792,1.09341459578,20.5061566125
-1.61893271642,1.09762331628,20.5053852379
-1.61846796881,1.10152354171,20.5041003141
-1.61780040374,1.10607426572,20.5038363473
-1.61712928596,1.11064920824,20.5035709757
-1.616662065,1.1145701903,20.5022792137
-1.61619484405,1.11849117236,20.5009874516
-1.6156227774,1.1227613364,20.5002040521
-1.61494315238,1.1273991941,20.499927913
-1.6143671159,1.13169840871,20.4991399526
-1.61389739513,1.13564036951,20.4978412792
-1.61342767437,1.13958233031,20.4965426057
-1.61273942678,1.14428396869,20.4962555342
-1.6121581099,1.1486231806,20.4954594672
-1.61168649666,1.15258102337,20.4941555615
-1.61110298207,1.15693722841,20.4933556
-1.61040475299,1.16171102912,20.4930583852
-1.60981714409,1.16609720755,20.4922537019
-1.60934298369,1.17007642643,20.4909427538
-1.60886882328,1.1740556453,20.4896318057
-1.60804475772,1.17932710048,20.4898265606
-1.60756866882,1.18332250358,20.4885102806
-1.60697401886,1.18776183925,20.4876950532
-1.60637775215,1.19221324472,20.4868776094
-1.60577986208,1.19667676928,20.48605794
-1.60518034202,1.20115246249,20.485236036
-1.60470165725,1.20516965046,20.4839125791
-1.60409984713,1.20966304553,20.4830866248
-1.60337193495,1.21465305365,20.4827568246
-1.60289128463,1.21868673682,20.4814279333
-1.60241063431,1.22272041998,20.4800990421
-1.60167608724,1.22775996727,20.4797601358
-1.60119411756,1.23180472269,20.4784275968
-1.60071214788,1.23584947811,20.4770950578
-1.59997090387,1.2409390346,20.4767469502
-1.59974820851,1.24393898895,20.4744299798
-1.59887280601,1.24958655147,20.4745651043
-1.59825630754,1.25419085309,20.4737171312
-1.59763810512,1.25880788061,20.4728668143
-1.59688320513,1.26399633334,20.4725045758
-1.59612410898,1.26921362641,20.4721403237
-1.59549863807,1.27388368391,20.4712818962
-1.59487142396,1.27856675699,20.4704210763
-1.59410246219,1.28385393445,20.4700489652
-1.59332919016,1.28917074812,20.4696747683
-1.59226444407,1.29574123165,20.4702882647
-1.59162469964,1.30051462966,20.4694151093
-1.63260771618,0.783611801226,20.7875464857
-1.63253143552,0.789649674262,20.7797183777
-1.62358572004,0.830784823537,20.8028792043
-1.63330073804,0.957367967396,20.5360519486
-1.63293060134,0.961004973034,20.5342795879
-1.63248246011,0.964765835496,20.5330405771
-1.63195459647,0.968664971382,20.5323301665
-1.63150588261,0.972430639378,20.5310895724
-1.63097609418,0.976344570278,20.5303757568
-1.63036288053,0.980422395707,20.5301879999
-1.62991243998,0.984202554274,20.528942632
-1.62946199944,0.987982712841,20.527697264
-1.62884331439,0.992100959445,20.5275021352
-1.62813597057,0.99641592391,20.5278342559
-1.62768262249,1.00022048286,20.5265808493
-1.62714241336,1.00421081044,20.5258538238
-1.62668847927,1.00802028731,20.524598797
-1.62623454518,1.01182976418,20.5233437702
-1.62560268377,1.01604184513,20.5231358399
-1.62505767252,1.02006823807,20.5224015136
-1.62460197126,1.0238925453,20.521141601
-1.62414627,1.02771685252,20.5198816883
-1.62359865817,1.03176364721,20.5191421796
-1.62314236479,1.03559292358,20.5178806299
-1.62268607141,1.03942219995,20.5166190802
-1.62213584733,1.04348948894,20.5158743645
-1.62167896029,1.04732374739,20.5146111735
-1.62112670739,1.05140662871,20.5138628718
-1.62047655099,1.05575510564,20.5136285451
-1.61992055871,1.0598650334,20.5128760223
-1.61936311022,1.06398572563,20.5121215286
-1.61890323156,1.06784509018,20.5108500664
-1.61834371809,1.07198164994,20.5100919267
-1.61778273533,1.07612907236,20.5093317961
-1.61722027748,1.08028740028,20.5085696668
-1.61665633872,1.08445667679,20.5078055309
-1.6160909132,1.08863694516,20.5070393804
-1.61552399502,1.09282824894,20.5062712073
-1.61495557827,1.09703063188,20.5055010037
-1.61449144491,1.10092570245,20.5042177782
-1.61392090938,1.10514436339,20.5034438377
-1.61324127692,1.10970469666,20.5031781287
-1.61266680606,1.11395183843,20.5023997218
-1.61209080656,1.11821028164,20.5016192436
-1.61162358561,1.12213126371,20.5003274815
-1.6110454289,1.12640627725,20.4995432028
-1.61035357497,1.13105387283,20.4992652981
-1.60988448166,1.13499056793,20.4979683594
-1.60941538836,1.13892726303,20.4966714207
-1.60871731459,1.14362084933,20.4963850788
-1.60813138298,1.1479533522,20.4955902532
-1.60766040226,1.15190588678,20.4942880963
-1.60707226434,1.1562553348,20.4934893871
-1.60660065109,1.16021317757,20.4921854813
-1.60589123657,1.16498937267,20.4918855155
-1.60529833391,1.16937405728,20.4910803356
-1.60470383013,1.17377058262,20.4902729814
-1.60422966973,1.17774980149,20.4889620333
-1.60363291724,1.18216359575,20.4881507235
-1.60303454888,1.18658934161,20.4873372167
-1.60230967342,1.19147605574,20.4870216438
-1.60183293819,1.19547688288,20.4857035769
-1.60122968262,1.19993877629,20.4848834258
-1.60062478466,1.20441281735,20.4840610418
-1.60001823761,1.20889905572,20.4832364158
-1.59953955284,1.21291624369,20.4819129589
-1.59893069654,1.21742021272,20.4810842752
-1.59832017581,1.22193649422,20.4802533261
-1.59784018246,1.22596466395,20.4789262513
-1.59709411369,1.23100619716,20.4785845946
-1.59647855853,1.23555972054,20.4777467935
-1.59599658885,1.23960447596,20.4764142545
-1.5956501864,1.24312383227,20.4745924568
-1.59489604721,1.24822638904,20.4742379486
-1.59427577263,1.25281614536,20.4733918593
-1.59365378838,1.25741855242,20.4725434379
-1.59288996255,1.26258882471,20.4721813068
-1.59226347829,1.26722386331,20.4713276878
-1.59134957357,1.27301558712,20.4714510058
-1.59057293942,1.27827255782,20.4710828022
-1.58979196418,1.28355891305,20.4707125405
-1.58900661133,1.28887489988,20.4703402034
-1.58806738228,1.29483138145,20.4704609143
-1.58727162043,1.30021669389,20.4700852397
-7.56977659062,0.450980557733,21.0257984635
-7.56920825951,0.457430765743,21.0223484983
-7.57140805385,0.464065597168,21.0226101834
-7.57362871857,0.470763376067,21.0228743512
-7.57305499547,0.477274779951,21.0193916548
-7.57388433968,0.483926478504,21.0177709124
-7.57471763681,0.490609881202,21.016142445
-7.57555491519,0.497325215255,21.0145061973
-7.5735647215,0.50369475988,21.0091438528
-7.57298826385,0.510237199219,21.0056445567
-7.56961265686,0.516343203252,20.998495476
-7.57043381692,0.523087786812,20.9968250531
-7.56985872979,0.52961467153,20.9933340765
-7.56789148755,0.535877414903,20.9880473867
-7.56731776445,0.542388818786,20.9845646902
-7.56536118973,0.548606516228,20.9793112605
-7.56617031824,0.555411626554,20.9775992973
-7.56421645866,0.561598508852,20.9723623494
-7.56227182387,0.567756180921,20.9671501267
-7.5630717276,0.574590501476,20.9654134383
-7.56249936206,0.581086497788,20.9619389827
-7.56192699653,0.5875824941,20.9584645272
-7.55998776637,0.593678826859,20.9532851125
-7.559416752,0.600159488344,20.949818859
-7.55884573763,0.606640149828,20.9463526055
-7.5596375344,0.613566479349,20.944566705
-7.55906516886,0.620062475661,20.9410922495
-7.55849280333,0.626558471973,20.9376177939
-7.5579204378,0.633054468285,20.9341433384
-7.55734807226,0.639550464597,20.9306688828
-7.55677570673,0.646046460909,20.9271944273
-7.5562033412,0.652542457221,20.9237199717
-7.55563097566,0.659038453533,20.9202455162
-7.55505861013,0.665534449845,20.9167710606
-7.5558433024,0.672616896458,20.9149107611
-7.55391387906,0.678526442469,20.9098221496
-7.55334151353,0.685022438781,20.906347694
-7.5541221331,0.692151108109,20.9044626717
-7.55354840999,0.698662511992,20.9009799753
-7.55297468689,0.705173915876,20.8974972788
-7.55240096379,0.711685319759,20.8940145824
-7.55318120313,0.71889432835,20.8920957565
-7.55125351759,0.724708127526,20.8870491895
-7.55067979448,0.73121953141,20.883566493
-7.55010607138,0.737730935293,20.8800837965
-7.55088085462,0.745001867222,20.8781318503
-7.55030576749,0.75152875194,20.8746408738
-7.54973068037,0.758055636658,20.8711498972
-7.54915559324,0.764582521376,20.8676589207
-7.54858050611,0.771109406094,20.8641679441
-7.54800541899,0.777636290812,20.8606769676
-7.54743033186,0.78416317553,20.857185991
-7.54685524473,0.790690060248,20.8536950145
-7.54762412716,0.798104530136,20.8516755277
-7.54704766951,0.804646969475,20.8481762316
-7.54512998335,0.810270714402,20.8432220848
-7.5458947542,0.817731848153,20.8411776394
-7.54666317891,0.825228629031,20.8391234262
-7.54608534418,0.831786697307,20.8356157708
-7.54550750946,0.838344765582,20.8321081154
-7.54492967473,0.844902833858,20.82860046
-7.54435184001,0.851460902133,20.8250928045
-7.54377400528,0.858018970409,20.8215851491
-7.54319617055,0.864577038684,20.8180774937
-7.54128309299,0.870071362865,20.8131832705
-7.5420405011,0.877693175236,20.8110621828
-7.54013017768,0.883156241543,20.8061846783
-7.53955372003,0.889698680882,20.8026853822
-7.53897726238,0.896241120221,20.7991860861
-7.53840080473,0.90278355956,20.79568679
-7.53782434708,0.909325998899,20.7921874938
-7.53857349275,0.917041584889,20.7900162503
-7.53799565802,0.923599653164,20.7865085949
-7.53609497412,0.928953316916,20.7816896055
-7.53551851647,0.935495756255,20.7781903094
-7.53626215385,0.943273857991,20.7759856286
-7.53436560116,0.948580634933,20.7711917172
-7.5351064844,0.956389994542,20.7689703178
-7.53452864967,0.962948062817,20.7654626624
-7.53395081495,0.969506131093,20.7619550069
-7.53469247904,0.977384298467,20.7597061703
-7.53279514549,0.982622267644,20.7549396961
-7.53221731077,0.989180335919,20.7514320407
-7.53163947604,0.995738404195,20.7479243852
-7.53237560546,1.00367938671,20.7456419512
-7.53179638707,1.01025315877,20.7421258964
-7.52990597187,1.01541260902,20.737401419
-7.52932813714,1.0219706773,20.7338937636
-7.53005873189,1.02997447496,20.7315777321
-7.52947951349,1.03654824702,20.7280616774
-7.52759463296,1.04164488212,20.7233707973
-7.52832107671,1.04969579114,20.7210295678
-7.52774185831,1.0562695632,20.7175135131
-7.52716263992,1.06284333526,20.7139974583
-7.52658342152,1.06941710733,20.7104814035
-7.52730918173,1.07755400342,20.7081036157
-7.52672857303,1.08414355466,20.7045791212
-7.52614796432,1.0907331059,20.7010546268
-7.52556735562,1.09732265713,20.6975301324
-7.52498674691,1.10391220837,20.6940056379
-7.52440613821,1.1105017596,20.6904811435
-7.5238255295,1.11709131084,20.6869566491
-7.5232449208,1.12368086207,20.6834321546
-7.52266431209,1.13027041331,20.6799076602
-7.52208370339,1.13685996454,20.6763831658
-7.52280038308,1.14517871294,20.673917613
-7.52221837737,1.15178411929,20.6703846383
-7.5190535824,1.15487614412,20.6647726916
-7.51847436401,1.16144991618,20.6612566368
-7.51918065986,1.16980772072,20.6587606936
-7.51731592722,1.17459746031,20.6542245273
-7.51801944245,1.18298682319,20.6517117047
-7.51872634313,1.19141655734,20.64918679
-7.51943665377,1.19988695486,20.6466496956
-7.52015039908,1.20839831069,20.6441003332
-7.51956557911,1.21503565725,20.6405502749
-7.51898075913,1.2216730038,20.6370002166
-7.51969512937,1.23025778819,20.6344212891
-7.52172340129,1.24086696085,20.6328017456
-7.52113430851,1.24755280113,20.6292257499
-7.52185916837,1.25626364218,20.6266089542
-7.52258757615,1.26501711961,20.6239793502
-7.52465002814,1.27590163024,20.6222925136
-7.52539070405,1.28476826649,20.6196328186
-7.52883640447,1.29799506946,20.6188685636
-7.5295948814,1.30700502856,20.6161738528
-7.53449200092,1.32278476256,20.6163382059
-7.55977395952,0.45071385458,21.0230149316
-7.56191908372,0.457285944424,21.0232785186
-7.56271438901,0.46382790567,21.0216821982
-7.56214471943,0.470293304557,21.0182241081
-7.56569666417,0.47712858465,21.0203304986
-7.56512294106,0.483639988534,21.0168478021
-7.56593342684,0.490306820342,21.0152210117
-7.56535833972,0.49683370506,21.0117300352
-7.56478325259,0.503360589778,21.0082390586
-7.56282804865,0.509685604068,21.0029170163
-7.56225432555,0.516197007951,20.9994343198
-7.56168060245,0.522708411835,20.9959516234
-7.56110687935,0.529219815719,20.9924689269
-7.56053315624,0.535731219602,20.9889862305
-7.55723229107,0.541688029916,20.9819495521
-7.55802027003,0.548460666861,20.9802478827
-7.5574479045,0.554956663173,20.9767734272
-7.55551924795,0.56113001437,20.9715507915
-7.55359967575,0.567274287864,20.9663527554
-7.55303000617,0.573739686751,20.9628946653
-7.55246033659,0.580205085638,20.9594365751
-7.55323519045,0.587052660308,20.9576857773
-7.54998413056,0.592740312647,20.9508292501
-7.54941579946,0.599190520658,20.947379285
-7.55018165828,0.606066681187,20.9456042144
-7.5496119887,0.612532080074,20.9421461242
-7.54904231912,0.618997478961,20.9386880341
-7.54847264954,0.625462877848,20.9352299439
-7.54790297996,0.631928276735,20.9317718537
-7.54866707546,0.638897952184,20.929955749
-7.54809606109,0.645378613669,20.9264894954
-7.54619397123,0.651324473396,20.9213975832
-7.54695403234,0.658339936638,20.9195569883
-7.54638301796,0.664820598123,20.9160907348
-7.5471453249,0.67188459679,20.9142332274
-7.54524098922,0.677781921092,20.9091582277
-7.54600059383,0.684876589414,20.9072843163
-7.5454282283,0.691372585726,20.9038098607
-7.54619007869,0.698516316691,20.9019188191
-7.54561635559,0.705027720575,20.8984361226
-7.54504263248,0.711539124458,20.8949534262
-7.54446890938,0.718050528342,20.8914707297
-7.54389518628,0.724561932226,20.8879880333
-7.5419940351,0.730348563598,20.8829631275
-7.54142166956,0.73684455991,20.8794886719
-7.54084930403,0.743340556223,20.8760142164
-7.5402769385,0.749836552535,20.8725397608
-7.53970457296,0.756332548847,20.8690653053
-7.54045284766,0.763630355527,20.8670918545
-7.53987912456,0.770141759411,20.8636091581
-7.53930540146,0.776653163294,20.8601264616
-7.53873167836,0.783164567178,20.8566437652
-7.53947941903,0.790543517369,20.8546360904
-7.5389043319,0.797070402086,20.8511451138
-7.53965426602,0.80450007736,20.8491195503
-7.53775415765,0.810124171522,20.8441631607
-7.53850135071,0.817584956038,20.8421209581
-7.53792489306,0.824127395377,20.8386216619
-7.53734843541,0.830669834716,20.8351223658
-7.53677197776,0.837212274055,20.8316230697
-7.5361955201,0.843754713394,20.8281237736
-7.53561906245,0.850297152733,20.8246244775
-7.5350426048,0.856839592072,20.8211251814
-7.53315346064,0.862339249266,20.8162353483
-7.53257837351,0.868866133984,20.8127443718
-7.53331323184,0.876466910089,20.810627293
-7.53273677419,0.883009349428,20.8071279969
-7.53216031654,0.889551788767,20.8036287008
-7.53158385889,0.896094228106,20.8001294047
-7.52970293788,0.901500557574,20.795289489
-7.53043094358,0.909179106784,20.7931308125
-7.52985448593,0.915721546123,20.7896315164
-7.52927802828,0.922263985462,20.7861322203
-7.52870157063,0.928806424801,20.7826329241
-7.52812511298,0.93534886414,20.779133628
-7.52754865532,0.941891303479,20.7756343319
-7.52697219767,0.948433742818,20.7721350358
-7.52639574002,0.954976182157,20.7686357397
-7.52581928237,0.961518621496,20.7651364436
-7.52524282472,0.968061060835,20.7616371475
-7.52466636706,0.974603500174,20.7581378514
-7.52408990941,0.981145939513,20.7546385552
-7.52351345176,0.987688378852,20.7511392591
-7.52293699411,0.994230818191,20.747639963
-7.52236053646,1.00077325753,20.7441406669
-7.5217840788,1.00731569687,20.7406413708
-7.51992645673,1.01245759778,20.7359428877
-7.5206311635,1.02040057555,20.7336427786
-7.52005470585,1.02694301489,20.7301434825
-7.5194782482,1.03348545423,20.7266441863
-7.51890179054,1.04002789356,20.7231448902
-7.51960573298,1.04805570738,20.720808714
-7.5203130467,1.0561219676,20.7184613494
-7.51845006353,1.06117184393,20.7137934031
-7.5178722288,1.06772991221,20.7102857477
-7.51857539152,1.07584328378,20.7079131851
-7.51799617313,1.08241705584,20.7043971303
-7.51741695473,1.08899082791,20.7008810756
-7.51683773634,1.09556459997,20.6973650208
-7.51625851794,1.10213837203,20.693848966
-7.51567929955,1.10871214409,20.6903329113
-7.51637888635,1.11694336096,20.6879067605
-7.51452086276,1.12185968821,20.6833008017
-7.51394164437,1.12843346027,20.679784747
-7.51336242597,1.13500723234,20.6762686922
-7.51405645153,1.1433015659,20.6738087828
-7.51347584282,1.14989111713,20.6702842884
-7.51162477079,1.15472854852,20.6657205279
-7.5110455524,1.16130232058,20.6622044731
-7.510466334,1.16787609264,20.6586884184
-7.50988711561,1.1744498647,20.6551723636
-7.51057279929,1.18283887331,20.6526618162
-7.50999219059,1.18942842455,20.6491373218
-7.51067977692,1.19787365782,20.6466062128
-7.51009777121,1.20447906416,20.6430732381
-7.51078727058,1.21298096716,20.6405213984
-7.51020386113,1.21960230509,20.6369799025
-7.51089528403,1.22816132737,20.6344071611
-7.51031046405,1.23479867392,20.6308571028
-7.51357885215,1.24740268935,20.6301897447
-7.51298975937,1.25408852963,20.6266137491
-7.5136947356,1.26281532663,20.6239905765
-7.51440316242,1.27158483812,20.6213545645
-7.51642535765,1.28250165345,20.6196548174
-7.5197958823,1.2956788377,20.6188926196
-7.52053002058,1.30466066493,20.6162046615
-7.52126781484,1.31368722119,20.6135033176
-7.55118857185,0.450509532547,21.0220946625
-7.55462990794,0.457141123105,21.0242085389
-7.55540804649,0.463682743282,21.0226144088
-7.56028286252,0.470579623309,21.0266350173
-7.55833833286,0.476982389349,21.0212693424
-7.55776460976,0.483493793233,21.0177866459
-7.55661716355,0.496516601,21.010821253
-7.55604344045,0.503028004883,21.0073385566
-7.55546971735,0.509539408767,21.0038558601
-7.55489599424,0.516050812651,21.0003731637
-7.55162174389,0.522100540396,20.993282724
-7.55105072952,0.528581201881,20.9898164704
-7.55317482494,0.535585024301,20.9899250743
-7.54857201155,0.541267529928,20.9811173267
-7.54800234197,0.547732928815,20.9776592366
-7.54743267239,0.554198327702,20.9742011464
-7.54553661029,0.560344451275,20.9690090963
-7.54629333323,0.567129125476,20.967284966
-7.54572366365,0.573594524363,20.9638268759
-7.54515399408,0.58005992325,20.9603687857
-7.5445843245,0.586525322138,20.9569106955
-7.54269495478,0.592595491328,20.9517592705
-7.54212662367,0.599045699338,20.9483093053
-7.54155829257,0.605495907349,20.9448593401
-7.54098996147,0.61194611536,20.941409375
-7.54042163036,0.61839632337,20.9379594098
-7.53985329926,0.624846531381,20.9345094446
-7.53928496816,0.631296739391,20.9310594795
-7.53871663706,0.637746947402,20.9276095143
-7.53814830595,0.644197155413,20.9241595491
-7.53757997485,0.650647363423,20.920709584
-7.53831795913,0.657644709896,20.9188717036
-7.53905942767,0.664675093056,20.917025146
-7.53717861997,0.67057550767,20.9119555233
-7.53660895039,0.677040906557,20.9084974331
-7.53603928082,0.683506305444,20.9050393429
-7.5380873086,0.691226736359,20.904746483
-7.53751494306,0.697722732671,20.9012720275
-7.53694257753,0.704218728983,20.8977975719
-7.536370212,0.710714725295,20.8943231164
-7.53579784646,0.717210721607,20.8908486608
-7.53522548093,0.723706717919,20.8873742053
-7.53334928393,0.729481707902,20.8823626106
-7.53408074986,0.736698710544,20.8804252942
-7.53350838433,0.743194706856,20.8769508387
-7.5329360188,0.749690703168,20.8734763831
-7.53106522643,0.75540435384,20.8684975964
-7.53179128773,0.762682695792,20.866527472
-7.5312189222,0.769178692104,20.8630530165
-7.53064655666,0.775674688416,20.8595785609
-7.53007419113,0.782170684728,20.8561041054
-7.5295018256,0.78866668104,20.8526296498
-7.53022590085,0.796041179644,20.8506172161
-7.52965217774,0.802552583528,20.8471345196
-7.52907845464,0.809063987411,20.8436518232
-7.52980324481,0.816504513361,20.8416132601
-7.52922815769,0.823031398079,20.8381222836
-7.52865307056,0.829558282797,20.834631307
-7.52807798343,0.836085167515,20.8311403304
-7.52750289631,0.842612052233,20.8276493539
-7.52692780918,0.849138936951,20.8241583773
-7.52635272205,0.855665821669,20.8206674008
-7.52448866982,0.86115521848,20.8157902515
-7.5252025478,0.868719591105,20.8136854477
-7.52462746067,0.875246475823,20.8101944711
-7.52276750052,0.880689430131,20.8053421622
-7.52219377741,0.887200834014,20.8018594657
-7.5229021993,0.894827129976,20.7997215415
-7.52104633121,0.900223641781,20.7948940728
-7.52175202504,0.907880899412,20.7927395884
-7.52117693792,0.91440778413,20.7892486118
-7.52060185079,0.920934668848,20.7857576353
-7.52002676366,0.927461553566,20.7822666587
-7.51945167654,0.933988438284,20.7787756822
-7.51887658941,0.940515323002,20.7752847056
-7.51830150228,0.94704220772,20.7717937291
-7.51772641516,0.953569092438,20.7683027525
-7.51715132803,0.960095977156,20.764811776
-7.5165762409,0.966622861874,20.7613207994
-7.51600115378,0.973149746592,20.7578298229
-7.51542606665,0.97967663131,20.7543388463
-7.51485097952,0.986203516028,20.7508478698
-7.51554359062,0.994083926076,20.7485832817
-7.51370080527,0.999257285464,20.7438659167
-7.51312571815,1.00578417018,20.7403749401
-7.51129303847,1.0109175078,20.735688233
-7.51197554389,1.01883793962,20.733392987
-7.51140045677,1.02536482434,20.7299020105
-7.51082536964,1.03189170905,20.7264110339
-7.51025028251,1.03841859377,20.7229200574
-7.5109319294,1.04642344079,20.7205889128
-7.51035547175,1.05296588013,20.7170896167
-7.50852502113,1.05799924793,20.7124471277
-7.51046116354,1.06758266919,20.7112313198
-7.50988332882,1.07414073746,20.7077236644
-7.50804964114,1.07913563748,20.7030924322
-7.50747318349,1.08567807682,20.6995931361
-7.50814982464,1.09381494229,20.6972006981
-7.50882970633,1.10199077643,20.6947968024
-7.50825048794,1.10856454849,20.6912807476
-7.50767126955,1.11513832055,20.6877646928
-7.50583848574,1.12004721539,20.6831700764
-7.50651283276,1.12828586467,20.6807325833
-7.50468281629,1.13316335194,20.6761547656
-7.50535439597,1.14143340879,20.6737004738
-7.50602919967,1.14974316725,20.6712343998
-7.50419595918,1.15458095292,20.6666683643
-7.50237147739,1.15939562505,20.6621241439
-7.50303752239,1.16772849704,20.6596362547
-7.502458304,1.1743022691,20.6561202
-7.50187908561,1.18087604116,20.6526041452
-7.50129986721,1.18744981322,20.6490880904
-7.50196493873,1.1958700259,20.6465629388
-7.5026332107,1.2043307583,20.6440256356
-7.502051205,1.21093616464,20.6404926609
-7.50146919929,1.21754157098,20.6369596862
-7.5021378874,1.22607497946,20.6343931012
-7.50280980892,1.23464965093,20.6318141056
-7.50222498894,1.24128699749,20.6282640473
-7.50289875003,1.2499193182,20.6256639469
-7.50484521024,1.26062425813,20.6240017482
-7.50425611746,1.26731009841,20.6204257525
-7.50621874869,1.27815255662,20.6187297789
-7.50691057252,1.2869812097,20.6160743935
-7.50890080856,1.29800085655,20.6143444201
-7.51091076893,1.30912971406,20.6125973018
-7.3721086193,0.47853018254,20.7664835357
-7.37298914281,0.483202200781,20.765827017
-7.37259300204,0.487698154516,20.7634223064
-7.37029079603,0.491864498474,20.758434852
-7.36926601335,0.496222036837,20.7551904801
-7.36699487835,0.500319993012,20.7502753128
-7.36847888813,0.505155423308,20.7504123594
-7.36934468694,0.509899112592,20.7497055162
-7.36894983946,0.514380388314,20.7473086563
-7.36792557205,0.51870833405,20.7440771294
-7.36886847936,0.537337987681,20.7377976063
-7.36783931285,0.541649599339,20.7345657788
-7.5329753542,0.604927809365,20.9441179579
-7.5311219698,0.610926551837,20.9390205436
-7.53313245458,0.618251502051,20.9388894301
-7.52185472092,0.627344351724,20.9190887418
-7.36719130282,0.578625061688,20.718510213
-7.3655291598,0.582630217716,20.714501312
-7.3676642264,0.588215119495,20.7152599132
-7.3685416889,0.593313193959,20.7144246731
-7.52858580575,0.669853166136,20.9112897088
-7.52801747465,0.676303374147,20.9078397436
-7.53131875443,0.68458489068,20.9091575608
-7.5307463889,0.691080886992,20.9056831053
-7.52631248134,0.695653998178,20.8974898481
-7.52830975113,0.703413556897,20.897162036
-7.52773873676,0.709894218382,20.8936957825
-7.52845692677,0.71706487224,20.8917852831
-7.52659670801,0.722855541351,20.8867632754
-7.5273121957,0.730056864864,20.884836372
-7.52545467926,0.73581686432,20.8798307683
-7.52616746463,0.743048857489,20.8778874609
-7.52445036803,0.762536846425,20.8674640943
-7.5238780025,0.769032842737,20.8639896388
-7.52330563697,0.775528839049,20.8605151832
-7.52273327143,0.782024835361,20.8570407277
-7.5221609059,0.788520831673,20.8535662721
-7.52158854037,0.795016827985,20.8500918166
-7.52229384644,0.802406388227,20.8480733634
-7.5204438093,0.808008820609,20.8431429055
-7.51987144377,0.814504816921,20.8396684499
-7.51929907823,0.821000813233,20.8361939944
-7.51999895403,0.828452003761,20.8341425776
-7.51942523093,0.834963407645,20.8306598812
-7.5201270706,0.842465509353,20.8285904298
-7.52083225547,0.850003368503,20.8265111148
-7.51770406162,0.854497619295,20.8202117918
-7.51713033852,0.861009023179,20.8167290953
-7.5152925195,0.866472787417,20.8118728056
-7.51472015397,0.87296878373,20.80839835
-7.51414778843,0.879464780042,20.8049238945
-7.5135754229,0.885960776354,20.8014494389
-7.51300305737,0.892456772666,20.7979749834
-7.5136879999,0.90007744648,20.7958329166
-7.5131142768,0.906588850364,20.7923502201
-7.5125405537,0.913100254248,20.7888675237
-7.5119668306,0.919611658131,20.7853848272
-7.51265093796,0.927315010687,20.7832077346
-7.51207585083,0.933841895405,20.7797167581
-7.51024566129,0.939145869782,20.7749367379
-7.50967193819,0.945657273665,20.7714540414
-7.50909821508,0.952168677549,20.767971345
-7.50977550232,0.959949434277,20.7657528519
-7.5092004152,0.966476318995,20.7622618753
-7.50737704578,0.9717028892,20.7575232556
-7.50680332267,0.978214293083,20.7540405591
-7.50622959957,0.984725696967,20.7505578627
-7.50690006669,0.992583857866,20.7482979691
-7.50508215337,0.997748504734,20.7435924698
-7.50450843027,1.00425990862,20.7401097733
-7.50393470716,1.0107713125,20.7366270769
-7.50336098406,1.01728271638,20.7331443804
-7.50278726096,1.02379412027,20.7296616839
-7.50221353786,1.03030552415,20.7261789875
-7.50163981475,1.03681692804,20.722696291
-7.50106609165,1.04332833192,20.7192135946
-7.50172428255,1.05132582033,20.7168791802
-7.50114919543,1.05785270505,20.7133882036
-7.5005741083,1.06437958976,20.7098972271
-7.49999902117,1.07090647448,20.7064062505
-7.49942393405,1.0774333592,20.702915274
-7.50007977999,1.08553118471,20.7005364547
-7.49950332234,1.09207362405,20.6970371586
-7.50016092466,1.10022576755,20.6946386148
-7.49835040704,1.10515850272,20.6900385664
-7.49777394939,1.11170094206,20.6865392703
-7.49719749173,1.1182433814,20.6830399742
-7.49784958576,1.12645804065,20.6806079931
-7.49727175103,1.13301610892,20.6771003377
-7.49669391631,1.1395741772,20.6735926823
-7.49611608158,1.14613224548,20.6700850268
-7.49553824685,1.15269031375,20.6665773714
-7.49496041213,1.15924838203,20.663069716
-7.4943825774,1.1658064503,20.6595620606
-7.49380474268,1.17236451858,20.6560544051
-7.49322690795,1.17892258685,20.6525467497
-7.49264907323,1.18548065513,20.6490390943
-7.49329183721,1.19387598968,20.646519872
-7.49271261881,1.20044976174,20.6430038172
-7.49213340042,1.2070235338,20.6394877625
-7.49155418203,1.21359730587,20.6359717077
-7.49219586075,1.22208028096,20.6334150725
-7.49284062737,1.2306040778,20.6308461343
-7.49225862166,1.23720948415,20.6273131596
-7.49413951384,1.24777532106,20.6256709918
-7.49479367903,1.25642336682,20.6230646069
-7.49545102278,1.2651134331,20.6204455577
-7.49611156832,1.2738458269,20.6178137517
-7.4967753391,1.28262085824,20.6151690953
-7.49744235879,1.29143884015,20.6125114944
-7.50193689393,1.30679168749,20.6126367978
-7.36704447153,0.47842956807,20.7671296665
-7.36664962405,0.482910843792,20.7647328065
-7.36562910529,0.487290075379,20.7614728835
-7.36523490129,0.491764047975,20.7590799297
-7.36546508161,0.496354670957,20.7575422267
-7.3644464933,0.500711993167,20.7542940222
-7.3640522893,0.505185965763,20.7519010684
-7.36365808531,0.509659938359,20.7495081146
-7.36388569169,0.514279773844,20.747954787
-7.36225053174,0.518455215952,20.7438892066
-7.36168706532,0.532029801339,20.7375433457
-7.3619114543,0.536686152452,20.7359704873
-7.36089865733,0.540977746531,20.7327574382
-7.36202149892,0.564486029102,20.724802141
-7.51470002846,0.627202202319,20.9200016035
-7.36065589814,0.587306721003,20.7135290359
-7.36088080668,0.592100252408,20.7119010326
-7.36110645796,0.596909614219,20.710267653
-7.36008330083,0.601151452655,20.707059898
-7.36218930504,0.606877830099,20.7077716224
-7.36178790528,0.611433470183,20.7053349879
-7.36138650552,0.615989110267,20.7028983533
-7.36161449769,0.620870156822,20.7012391493
-7.36121243072,0.625433369312,20.6987984646
-7.36207276343,0.63068109209,20.6979041385
-7.35978090647,0.634211670605,20.6931518152
-7.35875486019,0.638412793157,20.6899564731
-7.35839796193,0.657375856743,20.6817136716
-7.36051030583,0.663526472781,20.6822617003
-7.3607387401,0.668528104837,20.6805540012
-7.36033330354,0.673129560128,20.6780928619
-7.35866630689,0.676885877557,20.674152028
-7.35952243041,0.68233247071,20.6731705833
-7.3616601866,0.688703432999,20.6736655718
-7.36125201343,0.693335947167,20.6711878203
-7.36020620408,0.697508240972,20.66797565
-7.35857626182,0.716007081801,20.6580813402
-7.50987580926,0.874953390064,20.812076623
-7.36017948181,0.752241597697,20.6456351244
-7.35657727469,0.754114371642,20.6396636948
-7.35684089902,0.774448903105,20.6317592671
-7.50729410618,0.950498827809,20.7775617347
-7.50297476374,0.953276006679,20.7701849043
-7.50116616067,0.958533886132,20.7654274923
-7.50306261424,0.967620384491,20.7644671034
-7.49607371822,1.03159862329,20.7282931857
-7.49428148345,1.03667073273,20.7236351348
-7.4924977304,1.04171883848,20.7189991281
-7.49313403724,1.0496935405,20.7166697419
-7.49377336972,1.05770616217,20.7143292795
-7.49319828259,1.06423304688,20.710838303
-7.49262319547,1.0707599316,20.7073473264
-7.49204810834,1.07728681632,20.7038563499
-7.49147302121,1.08381370104,20.7003653733
-7.49089793409,1.09034058576,20.6968743968
-7.49032284696,1.09686747047,20.6933834202
-7.48974775983,1.10339435519,20.6898924437
-7.48917267271,1.10992123991,20.6864014671
-7.48859758558,1.11644812463,20.6829104906
-7.48802249845,1.12297500935,20.679419514
-7.48865117294,1.13118136797,20.6769847006
-7.48807471529,1.1377238073,20.6734854045
-7.48629723707,1.1425556635,20.6689465844
-7.48692179998,1.15080868598,20.6664868123
-7.48634534233,1.15735112532,20.6629875161
-7.48576888468,1.16389356466,20.65948822
-7.48519242703,1.170436004,20.6559889239
-7.48461596937,1.17697844334,20.6524896278
-7.48403951172,1.18352088268,20.6489903317
-7.48346305407,1.19006332202,20.6454910356
-7.48288659642,1.19660576136,20.6419917395
-7.48350450379,1.20500761694,20.6394617001
-7.48412537042,1.21344971026,20.636919544
-7.48234883434,1.21812375349,20.6324463893
-7.48296693363,1.22659725439,20.6298874345
-7.48358800019,1.23511143356,20.6273161951
-7.48542253047,1.24564166613,20.6256780027
-7.48483912102,1.25226300406,20.6221365068
-7.48546921875,1.26090099118,20.619527878
-7.48488439878,1.26753833773,20.6159778198
-7.48796701918,1.2803815554,20.6152017508
-7.48861090632,1.28917254269,20.6125507177
-7.48925794506,1.29800655866,20.6098867087
-7.35973731498,0.482527419995,20.7627833306
-7.35737977516,0.509284045139,20.7484722534
-7.35637925509,0.513599199182,20.7452545618
-7.35659392855,0.518202920187,20.7437018943
-7.35680930057,0.522821622126,20.7421441744
-7.35541515863,0.531581232759,20.7365463557
-7.35562861275,0.536221701833,20.7349769934
-7.35462931202,0.540500107807,20.7317759967
-7.35423638872,0.544959545331,20.7293908172
-7.35384346541,0.549418982855,20.7270056376
-7.35405436231,0.554088474774,20.7254207521
-7.35487306914,0.55899191659,20.7246323184
-7.35387174261,0.563247159012,20.721437747
-7.35450871686,0.577415341173,20.7166245879
-7.35432564421,0.586672385902,20.7126010189
-7.35392885361,0.59117571476,20.7101923636
-7.35353206302,0.595679043619,20.7077837083
-7.35374452739,0.6004705791,20.7061516149
-7.35457031053,0.605575443128,20.7052918522
-7.35478554176,0.610407055523,20.7036475593
-7.3543861304,0.614940128435,20.7012229951
-7.35398671905,0.619473201346,20.6987984309
-7.3560556888,0.625330915181,20.6994564093
-7.35503412165,0.629553746407,20.6962453026
-7.35401593936,0.633762585728,20.6930448356
-7.3536152046,0.638310678497,20.6906122378
-7.35382992237,0.64322066666,20.688935399
-7.35342852261,0.647776306744,20.6864987645
-7.35302712285,0.652331946829,20.68406213
-7.35324122002,0.657273402613,20.6823716163
