-0.0625551142591,-0.167010156466,0.552256063628
-0.0633067067617,-0.161451917928,0.558891356712
-0.0638547117741,-0.155219171925,0.563729315919
-0.0647515308386,-0.149661679825,0.571646714395
-0.0444583994416,0.221308727129,0.392492619695
-0.0444048744847,0.226348454633,0.392020084678
-0.0467105676054,0.243683132998,0.412375462841
-0.0466514859736,0.248949539327,0.411853871763
-0.0465337699532,0.25388192446,0.410814638012
-0.0463001111655,0.258139754017,0.408751825341
-0.0465337699532,0.26500304695,0.410814638012
-0.0546565084659,-0.165605790809,0.547612217613
-0.0550266779375,-0.159265002853,0.551321004195
-0.0556866843008,-0.153623390517,0.557933712514
-0.0562651364177,-0.147588841609,0.563729315919
-0.0389395247889,0.219982906964,0.390141268094
-0.0388929247072,0.224994065161,0.389674374492
-0.040848299462,0.241845426589,0.409265583953
-0.0408997061469,0.247696349287,0.409780635672
-0.0407458727975,0.252290409082,0.408239354973
-0.0405931923183,0.256850039709,0.406709625063
-0.0429538522583,0.277612054813,0.430361451003
-0.0466561991107,-0.16340727952,0.540342353217
-0.0472839201079,-0.158193612681,0.547612217613
-0.0477659085301,-0.152318424413,0.553194300236
-0.0482578244418,-0.146322225211,0.558891356712
-0.0337274032302,0.214959725988,0.390609281867
-0.0334465457114,0.218412741948,0.387356569141
-0.0334068045965,0.223390040326,0.386896312885
-0.0351175974531,0.240335045574,0.406709625063
-0.0351175974531,0.245840043619,0.406709625063
-0.0349430156364,0.250095517859,0.404687729763
-0.0350300890273,0.256210003252,0.405696158264
-0.0370618610678,0.276880158805,0.429226846714
-0.0391864028767,-0.162597812522,0.537665671346
-0.0396446386567,-0.157136540866,0.543952996291
-0.039978566614,-0.151035441845,0.548534728376
-0.0402497867239,-0.144585052437,0.552256063628
-0.0280314250315,0.216864832711,0.384611340974
-0.0279983539217,0.221808724382,0.384157581528
-0.0294215095725,0.238547305398,0.40368430208
-0.0294215095725,0.244011354333,0.40368430208
-0.0294215095725,0.249475403268,0.40368430208
-0.0293850792587,0.254623780969,0.403184451936
-0.0311598885239,0.275789522176,0.427536113355
-0.0316343140237,-0.161002701534,0.532391083657
-0.0320535818254,-0.155834902636,0.539447169626
-0.0320535818254,-0.148533242111,0.539447169626
-0.0327591169536,-0.144340246402,0.551321004195
-0.0227191656205,0.215591569914,0.382353200244
-0.0226659348753,0.220249638469,0.381457351069
-0.0238388732289,0.237077713395,0.401197368845
-0.0238388732289,0.242508100568,0.401197368845
-0.0238095370726,0.247633374233,0.400703654707
-0.0238682817657,0.253681440354,0.401692301112
-0.0253042295319,0.274707443916,0.425858647402
-0.0245067193071,-0.154048421659,0.533262983091
-0.0247499176609,-0.148287574522,0.538554947225
-0.0250817912871,-0.142888643967,0.545776473603
-0.0183695902238,0.24161500606,0.399719862874
-0.0183021880069,0.246119002002,0.398253199515
-0.0184148015194,0.253057078763,0.400703654707
-0.0195452660269,0.274348635634,0.425302413441
-0.0170756333029,-0.158923941908,0.525517204651
-0.0171865841656,-0.152797237809,0.52893181225
-0.0173557405021,-0.147071326303,0.534137743037
-0.0175573469334,-0.141465947808,0.540342353217
-0.0100005135368,-0.151810829737,0.525517204651
-0.0100983004328,-0.146112598971,0.530655810386
-0.0102148300428,-0.140533119169,0.536779327416
-0.00286527761753,-0.15565809232,0.514717949828
-0.00289733740292,-0.150354868314,0.520477163843
-0.00293012274485,-0.14493162514,0.5263667167
-0.00296851215353,-0.139612512113,0.533262983091
-0.00299302057434,-0.133487623953,0.537665671346
0.00405164083162,-0.155167529827,0.51309579632
0.00409683044978,-0.149875734102,0.518818564965
0.00412973087013,-0.144000503103,0.522985041729
0.00416991568537,-0.138253996708,0.528074007072
0.00421089023099,-0.13239455734,0.533262983091
0.00424565588612,-0.126210076811,0.537665671346
0.0109768261936,-0.148456480182,0.513905592987
0.0110641364079,-0.142626038619,0.517993223298
0.0111887304031,-0.137141934071,0.523826380335
0.011316162481,-0.131532909034,0.529792408806
0.0114089771522,-0.125381941174,0.534137743037
0.017727743492,-0.147063853473,0.509084795308
0.0178956170279,-0.141500536407,0.513905592987
0.0180379596442,-0.135614766926,0.517993223298
0.0182999655275,-0.130471493223,0.525517204651
0.0184488399848,-0.124361930048,0.529792408806
0.0244288578766,-0.146149860813,0.505920865117
0.0246587366376,-0.140612843986,0.510681646904
0.0248536332653,-0.134757274148,0.514717949828
0.0251719580725,-0.129427070651,0.521310446401
0.0253750852935,-0.123358381052,0.525517204651
0.0257490973845,-0.117958647795,0.533262983091
0.0309516056367,-0.151584594524,0.501248027363
0.0310471927165,-0.145247158797,0.502796019275
0.0313375294729,-0.139736219865,0.507497898982
0.031583657379,-0.133910557096,0.511483835248
0.0319856061167,-0.128603495233,0.517993223298
0.0322420610529,-0.122567128496,0.522146401404
0.0325552881077,-0.116621704319,0.527218979712
0.0329284997691,-0.110740693022,0.533262983091
0.037469267393,-0.143913822281,0.498180463981
0.0378748976899,-0.138655691583,0.503573606244
0.0381700525274,-0.132867007116,0.507497898982
0.0384698437127,-0.126987392903,0.511483835248
0.0389594293529,-0.12159222354,0.517993223298
0.0395253248257,-0.116245268881,0.525517204651
0.0398468724961,-0.110019972076,0.529792408806
0.0440415843993,-0.143474800061,0.496660719113
0.0443119396128,-0.137591745724,0.499709538009
0.0447237538167,-0.132043805044,0.504353602056
0.0452848956798,-0.126788231562,0.510681646904
0.045787573945,-0.121206590272,0.516350392751
0.0461535169929,-0.115130403575,0.520477163843
0.0467513501639,-0.109485557856,0.527218979712
0.0475207795646,-0.104033868547,0.53589590096
0.0504205796786,-0.142604742556,0.49364887741
0.0506509471544,-0.136544003467,0.495904318473
0.0513548554692,-0.13163601742,0.502796019275
0.0515139447132,-0.12521715177,0.504353602056
0.0522422163801,-0.12006422871,0.511483835248
0.052991375025,-0.114763518779,0.518818564965
0.0536755643578,-0.109132156709,0.525517204651
0.0539367124452,-0.102515398488,0.528074007072
0.0546456939532,-0.0966212576713,0.535015377595
0.0566373272773,-0.141531898316,0.48993505734
0.057240208767,-0.136336366923,0.495150218284
0.0576787566851,-0.130627483338,0.49894382949
0.0582139667652,-0.125023500226,0.503573606244
0.0587592024683,-0.119314542592,0.508290108564
0.0594083620341,-0.113676761307,0.513905592987
0.0601680468203,-0.108085510627,0.520477163843
0.060848889164,-0.102183960942,0.5263667167
0.0613447157009,-0.0958339403636,0.530655810386
0.226417986993,-0.57801470593,1.75429616434
0.225204669416,-0.551299324597,1.7448953283
0.0629492511188,-0.140895905328,0.487733466993
0.0634242604679,-0.135307585043,0.491413859572
0.0641014456544,-0.130029746789,0.496660719113
0.0644949410352,-0.124064158176,0.499709538009
0.0650943265063,-0.118390498497,0.504353602056
0.066118449152,-0.113319068243,0.512288547743
0.0664319995896,-0.106889516584,0.514717949828
0.0674989906396,-0.101527473873,0.522985041729
0.0683775825111,-0.0956780141042,0.529792408806
0.250036348786,-0.554269516833,1.75429616434
0.0689989223603,-0.139848524466,0.484107792439
0.0695156825551,-0.134294213072,0.487733466993
0.0701461048322,-0.128850535911,0.49215661342
0.0706802577915,-0.123119426642,0.495904318473
0.0713320785754,-0.117480657122,0.500477600344
0.0731305249918,-0.106552650142,0.51309579632
0.0738285455342,-0.10055840846,0.517993223298
0.0746599338238,-0.094600577458,0.523826380335
0.273654710579,-0.554269516833,1.75429616434
0.273654710579,-0.530524327735,1.75429616434
0.0748488541707,-0.138612040569,0.479827507807
0.0758548711495,-0.133893101733,0.48627669965
0.0763107224533,-0.128076206143,0.489198988808
0.0771217859452,-0.122745550435,0.494398408068
0.0778308315493,-0.11712062421,0.49894382949
0.081450227881,-0.0942971811744,0.522146401404
0.0821085598002,-0.0879347395427,0.5263667167
0.297273072372,-0.530524327735,1.75429616434
0.0804786931824,-0.137196828775,0.474928528287
0.0817909547354,-0.13290072857,0.482672571132
0.0822788142957,-0.127121283899,0.485551574428
0.0836509373067,-0.122559462551,0.49364887741
0.0840331315496,-0.116407138229,0.495904318473
0.0874978072652,-0.0932504493065,0.516350392751
0.0868727297396,-0.137196828775,0.474928528287
0.0875109266968,-0.131729127206,0.478417516633
0.0881585698781,-0.126180495865,0.481958146977
0.0889485086519,-0.120729153225,0.48627669965
0.0921124152239,-0.10457521319,0.503573606244
0.0926857789837,-0.0983676297844,0.506708154997
0.0944495128186,-0.0932504493065,0.516350392751
0.0927257841312,-0.136401035799,0.472173765
0.0934029995933,-0.13095946856,0.475622248908
0.0943678914422,-0.125808068144,0.480535624636
0.095069396026,-0.120190673115,0.484107792439
0.0962137580118,-0.115005931222,0.48993505734
0.0970902736652,-0.109361739961,0.494398408068
0.0976835440192,-0.103297198999,0.497419430746
0.0990452809889,-0.0979105386764,0.504353602056
0.100445520716,-0.0923715719393,0.511483835248
0.098511330282,-0.135614421378,0.469450774735
0.0998063758189,-0.13095946856,0.475622248908
0.100245657578,-0.125069769425,0.477715623971
0.101587014442,-0.120190673115,0.484107792439
0.102501374396,-0.114660884438,0.488465128667
0.103904198944,-0.102825960289,0.495150218284
0.10550862281,-0.0976081639763,0.502796019275
0.106495283073,-0.0916517306204,0.507497898982
0.107839897875,-0.0858529862073,0.513905592987
0.111760124675,-0.0971580875905,0.500477600344
0.112625662782,-0.0910838854029,0.504353602056
0.114038759154,-0.0853143942901,0.510681646904
-1.43140906243,-0.938244250598,2.97849046563
-1.43362003938,-0.905532747358,2.97465477751
-1.42340450171,-0.864318864355,2.9469246403
-1.42559683804,-0.831883150026,2.94312129066
-1.44025297023,-0.807398237639,2.96314771317
-1.4680766378,-0.790435080823,3.00814193947
-1.43217384701,-0.734576007041,2.93171124175
-1.40994956433,-0.688247790753,2.88162300856
-1.43655851965,-0.669704578383,2.92410454248
-1.39269194646,-0.580675877688,2.82581029205
-1.3948127609,-0.549298332879,2.82213102134
-1.39693357534,-0.517920788071,2.81845175063
-1.37598829786,-0.4765570213,2.77178916284
-1.36680086171,-0.44105501768,2.74721939906
-1.35775855452,-0.406113820001,2.72303775054
-1.34885796445,-0.371720244271,2.69923509308
-1.34009578578,-0.337861516543,2.67580258625
-1.3314688148,-0.304525257093,2.65273166246
-1.32297394592,-0.271699465332,2.63001401649
-1.31460816794,-0.239372505401,2.60764159555
-1.31658395362,-0.210140667599,2.60421392632
-1.30832944702,-0.17852168817,2.58220476813
-1.30019850102,-0.147376009011,2.56052506208
-1.28237884964,-0.114832279264,2.52145141963
-1.28429635713,-0.0864626698151,2.51812485365
-1.28621386462,-0.0580930603662,2.51479828767
-1.27842336367,-0.0285128935475,2.49408809311
-1.26130358077,0.00161141597756,2.45681874821
-1.28223030607,0.0278109901106,2.48748366256
-1.28413377727,0.0559729319397,2.48418144729
-1.26693159935,0.0848782034933,2.44705504444
-1.28019428249,0.140423824275,2.45728780314
-1.2820839214,0.168381116675,2.45400958467
-1.2839735603,0.196338409076,2.45073136619
-1.2858631992,0.224295701476,2.44745314772
-1.27818763651,0.251411778525,2.42752763691
-1.28964247701,0.280210286276,2.44089671077
-1.28193964889,0.306922970202,2.42101850107
-1.28381565509,0.33467856604,2.41776393315
-1.27620973684,0.360809768817,2.39819380156
-1.27807230562,0.388366557509,2.39496254539
-1.38968697987,-0.941429755552,2.92955382957
-1.40403778379,-0.917876277532,2.94946489296
-1.39407165251,-0.876558326895,2.92194713029
-1.42086465695,-0.860926809424,2.96584887158
-1.43573340003,-0.836269541248,2.98641832731
-1.41288169159,-0.787030264572,2.9341221405
-1.39079418626,-0.739437639758,2.88357483423
-1.40503333413,-0.714379755251,2.90293038211
-1.38325910312,-0.668386438926,2.85331940128
-1.37370968759,-0.63013930221,2.8272710722
-1.35297072321,-0.586625228928,2.78008829275
-1.35507438043,-0.55550152587,2.77643878704
-1.35717803766,-0.524377822811,2.77278928133
-1.34806782464,-0.488207154014,2.74801431934
-1.32822531419,-0.447966158486,2.70320149719
-1.31955615653,-0.413244613758,2.67955428328
-1.31102181129,-0.379063017216,2.65627480273
-1.30261915809,-0.345408871086,2.6333545439
-1.30462543179,-0.315725961758,2.62987398289
-1.29633608506,-0.282814413558,2.60733134316
-1.28817270605,-0.250403000371,2.58513126901
-1.29014849173,-0.221171162569,2.58170359978
-1.27221253761,-0.187035660313,2.54172805051
-1.2840542181,-0.160457599338,2.55646236748
-1.27610495842,-0.129447119643,2.53497532871
-1.27805116883,-0.100652849308,2.53159896781
-1.27999737924,-0.0718585789724,2.52822260691
-1.27213731086,-0.0417366582149,2.50710498019
-1.2740690632,-0.0131562956901,2.50375370171
-1.27600081553,0.0154240668346,2.50040242323
-1.27793256787,0.0440044293594,2.49705114475
-1.2798643202,0.0725847918842,2.49369986627
-1.28179607254,0.101165154409,2.49034858779
-1.28372782487,0.129745516934,2.48699730931
-1.28565957721,0.158325879458,2.48364603083
-1.28759132955,0.186906241983,2.48029475235
-1.27973322354,0.214897896922,2.4596862706
-1.28165073103,0.243267506371,2.45635970462
-1.28356823853,0.27163711582,2.45303313864
-1.28548574602,0.300006725269,2.44970657266
-1.27770057495,0.326965575418,2.42947285422
-1.27960404615,0.355127517247,2.42617063895
-1.27191819058,0.381489904553,2.40625498928
-1.37224455125,-0.962931310945,2.92811069652
-1.3744555282,-0.930219807705,2.9242750084
-1.36473880331,-0.888797789434,2.89696962029
-1.40339016225,-0.882104001673,2.96469471515
-1.36912347596,-0.823926360777,2.88936292102
-1.35953256577,-0.783739311631,2.86257769957
-1.36170657315,-0.75157477477,2.85880614768
-1.35225667714,-0.71232079937,2.83249635683
-1.36605458792,-0.687245701047,2.85126304391
-1.33381931946,-0.635733757104,2.78116425496
-1.32482437567,-0.598369610255,2.75612111273
-1.32692803289,-0.567245907196,2.75247160702
-1.30726414641,-0.525426076633,2.70723105525
-1.29869207386,-0.489818496971,2.68336524384
-1.2902543486,-0.454768983245,2.65987347349
-1.29229206596,-0.424620863399,2.65633836279
-1.28396971009,-0.390350811902,2.63323939544
-1.26571639826,-0.352840655354,2.5915564951
-1.27778204877,-0.326926666423,2.60701630333
-1.27978832246,-0.297243757095,2.60353574232
-1.29205720322,-0.270695987956,2.61920890033
-1.27368005014,-0.235018068212,2.57774084457
-1.27567096311,-0.205562421426,2.57428693193
-1.27766187608,-0.17610677464,2.5708330193
-1.27965278906,-0.146651127855,2.56737910666
-1.29182596461,-0.119146301129,2.5826523763
-1.283634615,-0.0877398342835,2.5604712814
-1.28562552797,-0.0582841874978,2.55701736876
-1.29784478568,-0.0300975731464,2.57221069329
-1.27951931526,0.00165304487822,2.53177191947
-1.29159826688,0.0300827528591,2.54665563086
-1.28347088662,0.0601167204824,2.52491658102
-1.28544667229,0.0893485582845,2.5214889118
-1.28742245797,0.118580396087,2.51806124258
-1.28939824365,0.147812233889,2.51463357336
-1.29137402933,0.177044071691,2.51120590414
-1.29334981501,0.206275909493,2.50777823491
-1.29532560068,0.235507747295,2.50435056569
-1.28723140061,0.263766148972,2.48309446434
-1.29927717204,0.293971422899,2.49749522725
-1.26174753749,0.317671197517,2.4245336494
-1.27333553552,0.347603753259,2.43817843126
-1.28509699274,0.377984365422,2.45202746003
-0.220181296853,0.248404520495,0.572997296751
-0.217255644662,0.252418695809,0.566792815814
-1.35450296594,-0.984801641482,2.92664281216
-1.3448732726,-0.942563337879,2.89908512385
-1.34708424955,-0.909851834639,2.89524943573
-1.33759829044,-0.868601537645,2.86818876065
-1.33979062676,-0.836165823317,2.86438541101
-1.34198296309,-0.803730108988,2.86058206138
-1.33261896004,-0.763711909782,2.83403746113
-1.32341023355,-0.724357303678,2.80793303097
-1.3143529531,-0.685649920572,2.78225791236
-1.2945743709,-0.641237694641,2.73580343842
-1.29667802812,-0.610113991582,2.7321539327
-1.27749578876,-0.56761160611,2.68723688334
-1.26915883353,-0.531670835456,2.66352899049
-1.28163611343,-0.506355316652,2.68005408835
-1.28370627577,-0.475727171923,2.67646269086
-1.27532026869,-0.440512125614,2.65283989506
-1.26706569275,-0.405848993195,2.6295873316
-1.27942789213,-0.379739652386,2.64571383143
-1.28148170386,-0.349353415772,2.64215079962
-1.28353551558,-0.318967179158,2.63858776781
-1.2855893273,-0.288580942544,2.635024736
-1.28764313902,-0.25819470593,2.63146170418
-1.27929199692,-0.22496027412,2.60837666742
-1.28132971429,-0.194812154274,2.60484155672
-1.29380457418,-0.167035996088,2.62077260875
-1.28540514901,-0.134515914583,2.59777133533
-1.29791219762,-0.10626352286,2.61364654512
-1.28948058373,-0.0742196748911,2.59070111394
-1.2915183011,-0.0440715550453,2.58716600324
-1.29355601846,-0.0139234351996,2.58363089254
-1.28522383484,0.0171532772224,2.56109725526
-1.28724570813,0.0470669832089,2.55758963148
-1.29966917054,0.0765209243378,2.57302556045
-1.29128945469,0.106894395182,2.55057438393
-1.29331132798,0.136808101168,2.54706676015
-1.29533320126,0.166721807155,2.54355913638
-1.2870515922,0.19616499681,2.52150852569
-1.29937694783,0.226549219128,2.53654388882
-1.30139882111,0.256462925114,2.53303626504
-1.29307041327,0.285213724793,2.51106684268
-1.28486953573,0.31352427249,2.48943383119
-1.28686044871,0.342979919276,2.48597991856
-1.28885136168,0.372435566062,2.48252600593
-1.29084227465,0.401891212847,2.47907209329
-0.216649559105,0.246959669904,0.571239684458
-1.32466702636,-0.997251024163,2.9012369106
-1.31529101701,-0.954906868053,2.87389523929
-1.31750199396,-0.922195364813,2.87005955118
-1.31971297091,-0.889483861573,2.86622386306
-1.29918333217,-0.840178118516,2.81681187836
-1.30135733955,-0.808013581655,2.81304032647
-1.29240780758,-0.768291664122,2.78710998652
-1.29456378996,-0.736393807987,2.7833697051
-1.27494669245,-0.69079163652,2.73651821787
-1.26642802336,-0.652982075968,2.71183625839
-1.27918832132,-0.628036546903,2.72915967645
-1.2706353378,-0.59073466985,2.70453724697
-1.27273899503,-0.559610966791,2.70088774126
-1.28555076463,-0.533903912477,2.71812186432
-1.28767157907,-0.502526367669,2.71444259361
-1.28979239351,-0.47114882286,2.7107633229
-1.28115362392,-0.435116154556,2.68628971841
-1.29403402238,-0.408393733243,2.70340478148
-1.29615483682,-0.377016188434,2.69972551077
-1.28746459559,-0.341745045379,2.67534120127
-1.28956825281,-0.310621342321,2.67169169556
-1.29167191004,-0.279497639262,2.66804218984
-1.29377556726,-0.248373936203,2.66439268413
-1.29587922449,-0.217250233144,2.66074317842
-1.30887972345,-0.188750919582,2.67764988652
-1.30008653893,-0.155002827027,2.65344416699
-1.29143448496,-0.121796391085,2.62962694907
-1.30429385338,-0.0927554209089,2.64614515557
-1.29560803572,-0.0600485201505,2.62238651218
-1.29769481111,-0.0291745846835,2.61876629374
-1.29978158649,0.00169935078352,2.6151460753
-1.30186836187,0.0325732862506,2.61152585685
-1.30395513726,0.0634472217176,2.60790563841
-1.29534116489,0.0946501931772,2.58464056908
-1.29741132723,0.125278337906,2.58104917159
-1.3102154634,0.156069028119,2.59704498308
-1.3015516519,0.186534627364,2.5738663766
-1.29302469795,0.216518978022,2.55105391003
-1.30569197658,0.247790916822,2.56668358161
-1.29713232139,0.27729145125,2.54392784641
-1.28870681887,0.306329633463,2.52152875439
-1.29074453623,0.336477753309,2.51799364369
-1.2927822536,0.366625873154,2.51445853299
-1.28445608632,0.39474366036,2.49246273886
-0.21943054644,0.242709552425,0.581750655917
-0.213442059983,0.245657784565,0.570091048082
-1.28349778447,-0.999961901466,2.85254104285
-1.27454791939,-0.957951891382,2.82584043992
-1.26574770429,-0.916644327251,2.79958629559
-1.26792171167,-0.884479790389,2.7958147437
-1.28112492837,-0.860644748396,2.81443039101
-1.29455266922,-0.836404385267,2.83336260227
-1.27444373383,-0.787986179806,2.78450008804
-1.28770193734,-0.76333760541,2.80302034209
-1.2787917486,-0.723657106083,2.77695698426
-1.28096575598,-0.691492569222,2.77318543237
-1.28313976337,-0.65932803236,2.76941388049
-1.27434127589,-0.620838887753,2.74384525357
-1.29866361896,-0.601159033767,2.78400359391
-1.27865324066,-0.557043175482,2.73636469073
-1.29183579291,-0.530669884915,2.75432767294
-1.28296520542,-0.493247463211,2.7288841279
-1.28512118781,-0.461349607076,2.72514384648
-1.29835781507,-0.434176274331,2.74301301727
-1.28943315257,-0.397553894805,2.71766328365
-1.30270582984,-0.369847200609,2.7354699135
-1.30487983722,-0.337682663747,2.73169836161
-1.29590109972,-0.301860326399,2.70644243939
-1.30922785199,-0.273353590025,2.72415525784
-1.31140185938,-0.241189053164,2.72038370595
-1.30236904687,-0.206166757993,2.69522159514
-1.30452502925,-0.174268901857,2.69148131373
-1.30668101163,-0.142371045722,2.68774103231
-1.28686626047,-0.10645845246,2.64244942049
-1.3109929764,-0.0785753334508,2.68026046947
-1.30203780261,-0.0451781920615,2.65563519771
-1.30417605642,-0.0135426308401,2.65192567249
-1.29534951822,0.0190517267742,2.62773233765
-1.29747033266,0.0504292715828,2.62405306695
-1.2995911471,0.0818068163915,2.62037379624
-1.3127290717,0.112999614046,2.63708757162
-1.31486732551,0.144635175267,2.6333780464
-1.30595359041,0.175939450817,2.60933598411
-1.30807440485,0.207316995626,2.6056567134
-1.29928773529,0.237860931411,2.58203341271
-1.31231603372,0.270072085243,2.59829817198
-1.30349504974,0.300108337529,2.57473440128
-1.29481564248,0.329662508207,2.55154882891
-1.29690241786,0.360536443674,2.54792861047
-1.29898919325,0.391410379141,2.54430839202
-0.214242456427,0.240544763286,0.57733289311
-1.2649951472,-1.02214978953,2.85042510748
-1.26722508449,-0.989157767294,2.84655652624
-1.26945502177,-0.956165745062,2.84268794501
-1.28301411363,-0.932332267186,2.86219209298
-1.28526333925,-0.899054873139,2.85829004959
-1.28751256487,-0.865777479093,2.85438800621
-1.27837477091,-0.824197656134,2.82721362007
-1.28060470819,-0.791205633902,2.82334503883
-1.29426024173,-0.765945296953,2.84268187605
-1.27381432143,-0.717901902481,2.79282996526
-1.29875869298,-0.69939050886,2.83487778928
-1.3010079186,-0.666113114813,2.83097574589
-1.30325714422,-0.632835720766,2.8270737025
-1.27152310608,-0.580962781978,2.75522273427
-1.29621426919,-0.560261478277,2.79626497019
-1.29844420647,-0.527269456045,2.79239638896
-1.30067414376,-0.494277433813,2.78852780772
-1.30290408104,-0.461285411581,2.78465922649
-1.30513401832,-0.428293389349,2.78079064525
-1.29592409094,-0.390786870082,2.7544730841
-1.30959389289,-0.362309344885,2.77305348278
-1.32350017482,-0.333339174347,2.79195531203
-1.31405376746,-0.296325300421,2.76531632031
-1.31628370475,-0.263333278189,2.76144773908
-1.30697897569,-0.227229353882,2.73529464352
-1.30918995264,-0.194517850642,2.7314589554
-1.3229735166,-0.164357211493,2.74984199538
-1.31361190654,-0.129094844162,2.72378757917
-1.30440815094,-0.0944270670478,2.69817248971
-1.30660048726,-0.0619913527192,2.69436914008
-1.3202448374,-0.0309603344427,2.71228051483
-1.31098515991,0.00288007593815,2.6867624408
-1.30188031274,0.0361546435761,2.66167105241
-1.30405432012,0.0683191804374,2.65789950052
-1.30622832751,0.100483717299,2.65412794864
-1.30840233489,0.13264825416,2.65035639675
-1.31057634228,0.164812791021,2.64658484486
-1.30155037425,0.19646886746,2.62203461086
-1.31492435705,0.229141864744,2.63904174109
-1.31709836444,0.261306401605,2.6352701892
-1.31927237182,0.293470938466,2.63149863731
-1.29908760808,0.322511014026,2.58675955256
-1.31233028616,0.355958148137,2.60333320377
-1.32579439398,0.38996454905,2.62018398165
-0.210910859992,0.23915165944,0.576192063165
-0.206524066321,0.242838192063,0.5671077118
-0.187052813494,0.244401257005,0.53038818608
-0.184099894227,0.24793301462,0.524017537712
-0.182681620507,0.252127421211,0.520349698872
-0.181573700437,0.256414181244,0.517238592109
-0.181051938548,0.260971969563,0.515155459967
-0.180249819344,0.265325200603,0.512598888265
-0.17917480219,0.26946016591,0.509586135025
-0.177559667597,0.2731887356,0.50566428128
-0.176791709274,0.277390912407,0.503208230596
-0.176031541444,0.281550460555,0.500777095129
-0.175818793658,0.286047520553,0.499285455366
-0.17480134927,0.289937917948,0.496439677939
-0.174593553298,0.294374479339,0.494972005149
-1.26878048801,-1.06550078338,2.89600734629
-1.27106930896,-1.03163757466,2.8920366114
-1.28500395643,-1.0078393634,2.91249858268
-1.29918830491,-0.983614701601,2.93332722096
-1.27793577182,-0.93004794851,2.88012440673
-1.29193139453,-0.905347605676,2.9004805958
-1.28251341372,-0.862321531075,2.87218293694
-1.2965496866,-0.837019767197,2.89246860454
-1.27552863084,-0.786478532315,2.84044299366
-1.28937987657,-0.760731904923,2.86027073227
-1.3034771247,-0.734528009478,2.88045061765
-1.29395751847,-0.693005487489,2.85232926249
-1.29624633942,-0.659142278771,2.8483585276
-1.29853516037,-0.625279070054,2.84438779271
-1.27766158331,-0.578837999051,2.79364396019
-1.3271463289,-0.569974481698,2.88482456231
-1.31733200091,-0.529544494039,2.85641464387
-1.29594828577,-0.484368820933,2.80501818847
-1.30997926513,-0.455963026468,2.82453411826
-1.31226808608,-0.42209981775,2.82056338337
-1.30275483742,-0.383665583806,2.79320992008
-1.30502368796,-0.350097838097,2.78927383061
-1.30729253851,-0.316530092388,2.78533774115
-1.30956138906,-0.282962346678,2.78140165168
-1.33580516918,-0.256233140121,2.82436667883
-1.31409909016,-0.21582685526,2.77352947275
-1.3163679407,-0.182259109551,2.76959338329
-1.31863679125,-0.148691363842,2.76565729382
-1.30915074202,-0.112954482399,2.73901535278
-1.31139996764,-0.0796770883524,2.7351133094
-1.31364919326,-0.0463996943058,2.73121126601
-1.31589841888,-0.0131223002592,2.72730922262
-1.32998104399,0.0191473647036,2.7459768465
-1.33224989454,0.0527151104127,2.74204075703
-1.32264609575,0.0867098818806,2.71560309247
-1.32489532137,0.119987275927,2.71170104908
-1.31543694987,0.153113628146,2.68575028147
-1.30613942046,0.185676658063,2.66024081346
-1.31989682444,0.21909767261,2.678013119
-1.33389222386,0.253096852114,2.69609287554
-1.29018475871,0.281333803454,2.60672995076
-1.31498332826,0.316522671023,2.644898061
-1.30576801027,0.347433471014,2.61994808479
-1.31940528216,0.381945677502,2.63722668477
-0.202075657133,0.235470942737,0.565301632501
-0.182051093298,0.242294238526,0.52585637962
-0.17917530418,0.245852133936,0.519560531309
-0.177797903452,0.250057483982,0.515932831658
-0.177005502213,0.254508048953,0.513348679606
-0.176782681085,0.259234945246,0.51177137126
-0.17628102925,0.263769804236,0.509715068809
-0.175228943242,0.267925566187,0.506713193582
-0.17501359529,0.272556672696,0.505173428741
-0.173707092862,0.276437828951,0.501758825213
-0.17322748672,0.280814031277,0.499782943948
-0.173020259663,0.285347357949,0.498282431585
-0.172279221424,0.289466549323,0.495876280812
-0.172075965845,0.293943584069,0.494397038591
-0.171609173353,0.298192954062,0.492476373386
-0.92288441137,1.06736928432,1.72144702505
-1.28473037519,-1.12257863008,2.96967444774
-1.28710272164,-1.08747965797,2.96555880961
-1.30169818827,-1.06331913637,2.9874513043
-1.29184741452,-1.01728171373,2.95732753333
-1.29421976096,-0.982182741618,2.9532118952
-1.3088807556,-0.957052730273,2.97499070938
-1.29896445385,-0.911984797385,2.94498061893
-1.28922745312,-0.867731757658,2.91551315414
-1.29157835184,-0.832950105535,2.91143472434
-1.29392925056,-0.798168453411,2.90735629454
-1.29628014929,-0.763386801288,2.90327786473
-1.29863104801,-0.728605149165,2.89919943493
-1.30098194673,-0.693823497042,2.89512100513
-1.29131411062,-0.651921615827,2.86636428861
-1.30568374417,-0.624260192796,2.88696414552
-1.3080346429,-0.589478540672,2.88288571572
-1.31038554162,-0.554696888549,2.87880728592
-1.31273644034,-0.519915236426,2.87472885612
-1.32743261116,-0.490797131987,2.89559296129
-1.30529312261,-0.445101505875,2.84211295928
-1.3197891365,-0.415570280057,2.86249356671
-1.33454965049,-0.385500215637,2.88324604688
-1.3122826286,-0.3416914509,2.82998729462
-1.32684183267,-0.311225323687,2.8502582773
-1.32919273139,-0.276443671564,2.8461798475
-1.3192721346,-0.238281395924,2.81786162995
-1.32160196993,-0.203811377599,2.81381974173
-1.32393180526,-0.169341359274,2.80977785351
-1.33859632628,-0.137317063071,2.82986612829
-1.340947225,-0.102535410948,2.82578769849
-1.33092131126,-0.0659313042981,2.79765218885
-1.34564902244,-0.0329721067018,2.81763083888
-1.33558098192,0.00300873235236,2.78956841241
-1.33791081725,0.0374787506776,2.78552652419
-1.32800089894,0.0725144598326,2.75799838766
-1.33031004498,0.106678379072,2.75399239203
-1.33261919101,0.140842298312,2.7499863964
-1.33492833705,0.175006217552,2.74598040077
-1.33723748308,0.209170136792,2.74197440514
-1.32742071847,0.242386235837,2.71507191641
-1.30604743732,0.273817179782,2.66656517661
-1.32004411072,0.308590446888,2.684702797
-1.31054588856,0.340371967875,2.65876108983
-1.32458181182,0.375725938307,2.67683061807
-0.181448612803,0.23719603315,0.530440273173
-0.176773142287,0.240052126914,0.520818819421
-0.174829606313,0.244064882312,0.516123701436
-0.173205586253,0.248141287776,0.512022381363
-0.172714085963,0.252755675136,0.509948867945
-0.172502227193,0.257493365461,0.508378407543
-0.172566980355,0.262372002891,0.507300877591
-0.172081825946,0.266894585541,0.505262069654
-0.17051625749,0.270680107717,0.501343855312
-0.170582654942,0.275472441462,0.500290708424
-0.170112018949,0.279880507002,0.498307786289
-0.169911455219,0.28444530282,0.496801434798
-0.170244999206,0.289380101082,0.496222789821
-0.170578543193,0.294314899344,0.495644144843
-0.17091208718,0.299249697606,0.495065499866
-0.171784028229,0.304617959354,0.495407120083
-0.927606243086,1.04106620977,1.75581450164
-0.906973283447,1.04235801409,1.71613969234
-0.897743465712,1.05387378843,1.69569907115
-1.28931960442,-1.17160207274,3.02160524239
-1.27940078012,-1.12370277329,2.99060422111
-1.2941978119,-1.09942877403,3.01314233984
-1.30927506222,-1.07469508632,3.03610727382
-1.3117372612,-1.03826674181,3.03183575603
-1.30151512312,-0.99116882598,3.00044798602
-1.30395422687,-0.955082176629,2.99621653475
-1.30639333061,-0.918995527278,2.99198508348
-1.30883243435,-0.882908877926,2.9877536322
-1.29873228201,-0.837692335093,2.95706718582
-1.31371064183,-0.810735579223,2.97929072965
-1.31614974557,-0.774648929872,2.97505927838
-1.30598159521,-0.730438420769,2.94449079758
-1.29600068524,-0.687042021652,2.91448521701
-1.31081447069,-0.65893581122,2.93610653876
-1.31323090842,-0.623184506445,2.93191440935
-1.32834526428,-0.594215683115,2.95390202201
-1.31806378389,-0.551681896896,2.92353015052
-1.33322347176,-0.522042384412,2.94543911946
-1.33566257551,-0.485955735061,2.94120766819
-1.3253130971,-0.444427982572,2.91095376228
-1.34054078299,-0.413782436358,2.93274476564
-1.34297988673,-0.377695787006,2.92851331437
-1.34541899047,-0.341609137655,2.92428186309
-1.33497884804,-0.301422763473,2.89418524464
-1.33739528578,-0.265671458698,2.88999311522
-1.33981172351,-0.229920153924,2.88580098581
-1.34222816125,-0.194168849149,2.8816088564
-1.3319135219,-0.155709991146,2.85218224242
-1.33430771101,-0.120287855779,2.84802871079
-1.33670190012,-0.0848657204123,2.84387517915
-1.32653178048,-0.0477549246719,2.81506128199
-1.34149027834,-0.0140214496782,2.83556811587
-1.35672678766,0.0203389794991,2.85645607993
-1.33364881981,0.0575419916776,2.80271436758
-1.33602116625,0.0926409637941,2.79859872944
-1.35106703478,0.12766709179,2.81895398931
-1.34076585914,0.162838908027,2.79036745317
-1.33065094359,0.197374767151,2.76229780279
-1.33300184231,0.232156419274,2.75821937299
-1.32304711696,0.265761781476,2.7306892565
-1.33770363975,0.301719723521,2.75006251338
-1.34005453848,0.336501375644,2.74598408358
-1.30595221565,0.365060949948,2.67311220771
-0.192414902779,0.225879621955,0.559074815494
-0.175184179691,0.234514094559,0.523690596149
-0.171242419402,0.23768503052,0.515299844196
-0.169917350162,0.241989148086,0.511677197593
-0.168886460135,0.246371234778,0.508602842853
-0.168139881778,0.25084703679,0.506053841246
-0.16794001918,0.255589732654,0.504493595824
-0.168280998478,0.260634536683,0.503902051782
-0.167812004753,0.265169834648,0.50187389896
-0.16707974146,0.269495591158,0.499389679187
-0.166619661315,0.273955391524,0.497397423084
-0.166163140276,0.278380691588,0.495420578755
-0.166762517006,0.28353160242,0.49530131877
-0.167629359193,0.288893916953,0.495645760251
-0.169038259701,0.294696842804,0.496926947111
-0.170461901311,0.300560483748,0.498221538826
-0.965844847112,0.997954708172,1.86014538504
-0.938510131549,1.01850578972,1.80231469167
-0.922581824354,1.02565723655,1.76981071185
-0.912787031463,1.03784520908,1.74789361274
-0.903220541248,1.04974909732,1.72648737
-0.878043700425,1.04565383892,1.6789243255
-1.26894492885,-1.19772618241,3.02086974454
-1.25912417966,-1.14913254889,2.98958483491
-1.28641064347,-1.13691913674,3.03981572411
-1.28889637924,-1.10014256437,3.03550337378
-1.29138211502,-1.063365992,3.03119102346
-1.30672322626,-1.03780680851,3.05477344752
-1.30923295316,-1.00067528642,3.05041947647
-1.31174268006,-0.963543764334,3.04606550542
-1.30132505811,-0.916259702508,3.01394162216
-1.31676213385,-0.889280720157,3.03735756333
-1.30629652966,-0.842706557763,3.00531692152
-1.30878226544,-0.805929985391,3.00100457119
-1.31126800121,-0.769153413019,2.99669222087
-1.32680104143,-0.740754631803,3.01994167915
-1.30341571464,-0.687729359259,2.96106849544
-1.33182049522,-0.666491587626,3.01123373705
-1.34770520978,-0.63681554522,3.03485149017
-1.32369668008,-0.585270551157,2.97513046925
-1.33934967591,-0.555097021361,2.99817182391
-1.32866815163,-0.511717406412,2.9665057686
-1.33115388741,-0.47494083404,2.96219341828
-1.33363962318,-0.438164261668,2.95788106796
-1.34938858349,-0.406570933007,2.98075593973
-1.35189831039,-0.369439410918,2.97640196868
-1.35440803728,-0.33230788883,2.97204799763
-1.34358256628,-0.291057972178,2.94063166666
-1.33296210245,-0.250589225133,2.90981028193
-1.34855403783,-0.217504827434,2.93200696601
-1.3510397736,-0.180728255061,2.92769461569
-1.36695667176,-0.146650278387,2.9502781424
-1.35601124515,-0.107175110317,2.91906991504
-1.34527309737,-0.0684475025808,2.88845269297
-1.34773529636,-0.0320191580703,2.88418117517
-1.35019749534,0.00440918644016,2.87990965738
-1.33961460313,0.041726879704,2.84994694287
-1.35512189331,0.0772658754611,2.8713666218
-1.33164483722,0.114102308998,2.81634897158
-1.33406127495,0.149853613772,2.81215684217
-1.3493710181,0.18607347711,2.83302113777
-1.36497068925,0.222979253503,2.85428055063
-1.34131058816,0.257107528096,2.79958045394
-1.35668832932,0.294333425164,2.82032678395
-1.34614346363,0.328610137646,2.79119619511
-0.184921355072,0.222814150694,0.550364912903
-0.175024947789,0.229443697622,0.52939069427
-0.171281848356,0.232926510428,0.521214580243
-0.167402987366,0.23614232397,0.512839944383
-0.165288373153,0.240057655161,0.507735530734
-0.164020951853,0.244308895365,0.504201480774
-0.163565677592,0.248938398444,0.502158814546
-0.163377811166,0.253686099846,0.500608784106
-0.16345451337,0.258569723148,0.499541429003
-0.162743048954,0.262941143379,0.49706289107
-0.162298657558,0.267438035037,0.495074522601
-0.16185771279,0.271900049525,0.493101575598
-0.161935288173,0.27669080836,0.492059069256
-0.163049967383,0.282225126675,0.492856117456
-0.163648415413,0.287407763098,0.492732910599
-0.166373750602,0.294252503108,0.496348055403
-0.948599523754,0.969982761042,1.85517712814
-0.944046875968,0.988859258581,1.84158397497
-0.927526653258,0.996777548327,1.80735607521
-0.91737426734,1.00968661172,1.78431707896
-0.90182426302,1.0169959097,1.75213523163
-0.892274237316,1.0292860141,1.73042655669
-0.872336483071,1.03085667566,1.69110815967
-0.868611692886,1.04776295334,1.67962235939
-1.23600139244,-1.21147224496,2.99281766188
-1.22648965117,-1.1627496744,2.9617958787
-1.25315219136,-1.15079660142,3.01149548442
-1.25563792714,-1.11402002905,3.00718313409
-1.27063405275,-1.08894973386,3.0305338456
-1.27314377964,-1.05181821178,3.02617987455
-1.30151180907,-1.0373287695,3.07861410304
-1.2909908414,-0.988404009346,3.04554688339
-1.31999560412,-0.972509965856,3.0988872609
-1.30918918644,-0.923741626737,3.06529509259
-1.32516472756,-0.896032552496,3.08991966612
-1.32774928929,-0.857793845816,3.08543586874
-1.34407153674,-0.829144542283,3.11050984551
-1.33291841273,-0.781316432457,3.07646827396
-1.34929255346,-0.751899365537,3.10145222427
-1.36599879097,-0.721885668017,3.12694289366
-1.32710306696,-0.658704960294,3.03421740153
-1.32966219274,-0.620842579374,3.02977773138
-1.3597345869,-0.597409012044,3.08333698179
-1.36234509526,-0.558786423671,3.07880817118
-1.33733957011,-0.507255436613,3.01645872092
-1.35359490649,-0.475406779019,3.04059789486
-1.35617946821,-0.437168072339,3.03611409747
-1.35876402993,-0.398929365659,3.03163030009
-1.34757607326,-0.355805912931,2.99870004032
-1.33660618277,-0.313522986033,2.9664116293
-1.36651771509,-0.28421324562,3.01817890792
-1.35525345063,-0.24221877017,2.98538102987
-1.34420873967,-0.201042815481,2.95322242028
-1.33337722514,-0.160661681652,2.92168456943
-1.33588695204,-0.123530159563,2.91733059839
-1.36548995378,-0.0907692464886,2.96762234926
-1.34090640583,-0.0492671153861,2.90862265629
-1.35687966783,-0.0135758645609,2.93124040525
-1.35941385346,0.0239175256232,2.92684400225
-1.36194803909,0.0614109158073,2.92244759924
-1.35094531341,0.099258972968,2.89120677211
-1.35345504031,0.136390495057,2.88685280106
-1.36955059598,0.173891086359,2.90925839023
-1.38852208587,0.249992181795,2.9276653179
-1.36349394789,0.284916583411,2.86943691688
-0.181356716284,0.215724036353,0.550321284421
-0.178527045841,0.220180515717,0.543610590032
-0.173944819283,0.223746439666,0.533659395515
-0.169567496395,0.227152906003,0.524153189096
-0.165381633721,0.230410376528,0.5150627757
-0.162447870842,0.23405491251,0.5083500196
-0.160395321474,0.237990003416,0.50330608043
-0.15916827099,0.2422519931,0.49981172244
-0.158991473407,0.247029760098,0.498263787847
-0.158557747115,0.251630385761,0.496252474085
-0.158640652949,0.256510310568,0.495192212351
-0.158466615596,0.261213485286,0.49366844469
-0.158293483967,0.265892183764,0.492152607013
-0.157866968278,0.270371773933,0.490185906494
-0.158203970424,0.275357735804,0.48960126217
-0.158796129939,0.280531460605,0.489473831577
-0.161202458242,0.287096095246,0.49258316409
-0.981223620842,0.959039739136,1.94478361621
-0.949941729241,0.957295231445,1.88339314037
-0.926664121924,0.960829966945,1.83649869309
-0.928303573239,0.985085722758,1.83365450969
-0.911973373183,0.993123057237,1.7993620133
-0.890596710443,0.995643036456,1.75647929849
-0.881066701687,1.00833458285,1.73445975141
-0.861157818808,1.01041189738,1.69458911844
-0.857454632642,1.02763250869,1.68295006829
-0.848686285408,1.03944885208,1.66265547488
-1.19141601893,-1.21245344926,2.93823837376
-1.18240698918,-1.16417452777,2.90801206079
-1.20798225399,-1.15236161848,2.95622254364
-1.19873333016,-1.1041935012,2.92554401994
-1.22486521081,-1.09112092135,2.97455054408
-1.23956433302,-1.06582961504,2.99758630158
-1.24207405992,-1.02869809295,2.99323233054
-1.25708414371,-1.00255196182,3.01667464956
-1.25961832934,-0.965058571632,3.01227824656
-1.30131213713,-0.959586357438,3.09435449096
-1.30392264549,-0.920963769065,3.08982568034
-1.30653315385,-0.882341180692,3.08529686972
-1.30914366221,-0.843718592319,3.0807680591
-1.32544275415,-0.814636023665,3.10604897261
-1.34207580743,-0.784957565785,3.13184788107
-1.35905319236,-0.754664714843,3.15818086953
-1.34740380052,-0.706129668849,3.1226046731
-1.35006779706,-0.66671572038,3.11798306912
-1.3527317936,-0.627301771912,3.11336146513
-1.35539579015,-0.587887823444,3.10873986115
-1.34390162285,-0.541536232561,3.07402581502
-1.36072378324,-0.509059926508,3.09949665318
-1.36338777978,-0.46964597804,3.09487504919
-1.35181256658,-0.424493464945,3.06030160463
-1.36871577287,-0.390818081103,3.08563184122
-1.37137976942,-0.351404132635,3.08101023724
-1.35972351031,-0.307450697329,3.04657739423
-1.37670776251,-0.272576235699,3.07176702927
-1.3649974728,-0.229422185585,3.03742792064
-1.36763445404,-0.190407929713,3.03285318384
-1.35613281268,-0.148512001603,2.99924946797
-1.35874332104,-0.10988941323,2.99472065735
-1.37554539777,-0.0733651620975,3.01912897344
-1.39269174177,-0.03609254489,3.04403740536
-1.35519805485,0.0455059203936,2.94837855772
-1.33057552703,0.0847563535217,2.88917896241
-1.36295174001,0.160222040433,2.93492716556
-1.35172257005,0.197842611505,2.9029486085
-0.17676255323,0.208180561504,0.548426644526
-0.174299962843,0.212880988844,0.542310183642
-0.171293621581,0.217221636972,0.53519616291
-0.167211115061,0.220939934711,0.526085164491
-0.164422663664,0.224999390737,0.519478308629
-0.160626114623,0.228426082488,0.511013355713
-0.158032832445,0.232232521027,0.504861069345
-0.156030419136,0.236194669311,0.499852197018
-0.154836317454,0.240476502953,0.496380580185
-0.154417269222,0.245121121752,0.494368761147
-0.154001513622,0.249729245889,0.492372749792
-0.154342046385,0.254767443406,0.491781980416
-0.154179010937,0.259481314042,0.490265131018
-0.154016825063,0.264170620816,0.488756185885
-0.153606405,0.268662726097,0.486800155556
-0.154193360057,0.273834474204,0.486668919745
-0.1560447102,0.279958430987,0.488828133539
-0.91956302126,0.917962477302,1.85602874601
-0.927438827016,0.947905641401,1.86423146733
-0.916768957564,0.962098246593,1.83928926242
-0.900450933681,0.970668359399,1.80446115485
-0.854980917423,0.994548896123,1.70741296881
-0.827271653536,1.00910160906,1.64827215431
-0.818944404564,1.0209939904,1.62860008855
-1.15878149044,-1.22607057476,2.91044941755
-1.16122059418,-1.18998392541,2.90621796627
-1.16365969792,-1.15389727606,2.901986515
-1.17750091656,-1.12967933652,2.92389894319
-1.1916067587,-1.10499838603,2.94623030439
-1.2059848864,-1.07984101831,2.96899272861
-1.20849461329,-1.04270949622,2.96463875757
-1.22317744602,-1.01669991429,2.98780241574
-1.23814928057,-0.990178386395,3.01142200362
-1.25341873439,-0.963129647385,3.03551111609
-1.24326753215,-0.914453624555,3.00254266332
-1.25858785783,-0.886652234026,3.02654352131
-1.28752369857,-0.868372123441,3.08058031476
-1.30376827934,-0.839244180257,3.10611830234
-1.30643227588,-0.799830231789,3.10149669836
-1.32304072085,-0.769691325214,3.12751552702
-1.3399965841,-0.738921967843,3.15407862199
-1.34271630658,-0.698683551668,3.1493603425
-1.34543602906,-0.658445135494,3.14464206301
-1.3628078198,-0.626174725752,3.17166694139
-1.35087547402,-0.577968303145,3.13520550404
-1.3683047577,-0.544847282731,3.16213064144
-1.37105322665,-0.50418356122,3.15736249147
-1.35903464146,-0.457253054621,3.12105066558
-1.38351214377,-0.0951073090506,3.0785861502
-0.170487926895,0.194454301827,0.5447457812
-0.169330931722,0.199705782405,0.541063556491
-0.168797955391,0.205083948098,0.5386147133
-0.167666822828,0.210196429853,0.535020294904
-0.165079050934,0.214661913962,0.528636154005
-0.161714048738,0.218647279345,0.520797788697
-0.15819807177,0.222368512596,0.512720403802
-0.155605848339,0.226317861497,0.506458508883
-0.153090316809,0.23015036743,0.500381874471
-0.151907004463,0.234526277217,0.496868968205
-0.150492912973,0.238696319534,0.492940368159
-0.149843065036,0.243212483407,0.490473734448
-0.149937739876,0.248122683101,0.489416883846
-0.150279166882,0.253174110993,0.488824563102
-0.150126345656,0.257904501051,0.487311486747
-0.149974322857,0.262610176771,0.485806315592
-0.150068208988,0.267463047896,0.48476244638
-0.150653609239,0.272660249298,0.484627863368
-1.12614696194,-1.23968770027,2.88266046133
-1.12858606568,-1.20360105092,2.87842901006
-1.14209518117,-1.17985374358,2.90011837832
-1.13346427317,-1.13142775222,2.86996610751
-1.14701957913,-1.10699705456,2.89157534274
-1.16083404238,-1.08209927834,2.91359771437
-1.17491516667,-1.05672089948,2.9360451846
-1.17742489357,-1.01958937739,2.93169121355
-1.20390889053,-1.00446557576,2.98226562406
-1.21883801866,-0.97755884149,3.00606494237
-1.22142258038,-0.93932013481,3.00158114499
-1.23667740478,-0.911489280763,3.02581329691
-1.23928791314,-0.87286669239,3.02128448629
-1.2418984215,-0.834244104017,3.01675567567
-1.27078874434,-0.814702897793,3.07114551564
-1.27345274089,-0.775288949325,3.06652391165
-1.30360745508,-0.754105742815,3.12309254804
-1.30632717756,-0.71386732664,3.11837426856
-1.30904690004,-0.673628910466,3.11365598907
-1.326034071,-0.64151898767,3.14035335599
-1.34338417438,-0.608723033503,3.16762111453
-1.36110896691,-0.575218824883,3.1954777418
-0.152047620741,0.162077122308,0.520814819516
-0.155128205088,0.167937176833,0.525646846986
-0.154129017419,0.173153335566,0.522256100209
-0.163420209943,0.186188151244,0.53801843266
-0.162323547688,0.191461746134,0.534412568064
-0.160663926997,0.196481346313,0.529714374927
-0.159037708166,0.201399921009,0.525110738571
-0.160266978333,0.207239372495,0.526141860294
-0.158654029048,0.212022185276,0.5216002901
-0.154618585703,0.215690788668,0.512363707513
-0.152847464246,0.220122602437,0.507586878057
-0.150856820437,0.224336275981,0.502414616279
-0.149166987558,0.228572974095,0.497854903373
-0.146772465118,0.232331683461,0.491968863301
-0.145894526182,0.236777590723,0.489024749486
-0.145268860851,0.241303845061,0.486578707748
-0.145128979111,0.246071568614,0.485069537232
-0.14546995841,0.251116372644,0.48447799319
-0.145810937708,0.256161176674,0.483886449147
-0.148105114254,0.262537044838,0.48696951063
-1.13631626626,-1.14499534692,2.91615955373
-1.13882599315,-1.10786382484,2.91180558268
-1.14133572005,-1.07073230275,2.90745161163
-1.15536405063,-1.04499581922,2.93005794809
-1.15789823626,-1.00750242904,2.92566154508
-1.17222762628,-0.980890384213,2.94866957435
-1.18684186466,-0.953749328915,2.97213497127
-1.20174953025,-0.926063330799,2.9960715105
-1.20436003861,-0.887440742426,2.99154269989
-1.20697054697,-0.848818154053,2.98701388927
-1.22223351239,-0.819787299504,3.01134405186
-1.25101577783,-0.799744545955,3.06618484201
-1.25370734894,-0.759922630595,3.06151540061
-1.26993804854,-0.729051101612,3.08738819462
-1.27265777102,-0.688812685438,3.08266991513
-1.28926032219,-0.656863249588,3.10903977058
-1.29200879114,-0.616199528077,3.10427162061
-0.148309668072,0.165569544052,0.517623616196
-0.146849746638,0.170653028425,0.513266913054
-0.146183124214,0.175804724693,0.510546755911
-0.153288432612,0.188251512185,0.522148789649
-0.153112525825,0.193615566506,0.520397025007
-0.152393095878,0.198768517574,0.517566431577
-0.151413261931,0.203766512736,0.514232862082
-0.150712508773,0.208797061551,0.511472816416
-0.149494613548,0.213553268305,0.507705278771
-0.147016155525,0.217663025016,0.501476171855
-0.144223097635,0.226490139871,0.493373076089
-0.142383598613,0.230526419236,0.488495274466
-1.15376911392,-1.1337503227,2.98897377719
-1.16682165572,-0.940637380835,2.9663297241
-1.15743027237,-0.89170110966,2.93372120279
-1.18431445681,-0.87352339928,2.98587539401
-1.19950168126,-0.844448229801,3.01044315021
-1.2021656778,-0.805034281333,3.00582154622
-1.21769487743,-0.774949240965,3.0308500581
-1.23354891951,-0.744234876584,3.05640212068
-1.23626864199,-0.70399646041,3.05168384119
-1.25248657339,-0.672207511506,3.07772618518
-1.25523504234,-0.631543789995,3.0729580352
-0.139619674612,0.17341995007,0.502867751828
-0.138760619325,0.178420395933,0.499748548589
-0.146956726625,0.185804032556,0.515169266145
-0.145753486911,0.190822788764,0.511317022624
-0.145601577599,0.196096317843,0.509623023053
-0.145192606304,0.201247852713,0.507416847087
-0.14351642973,0.205864864883,0.502668460185
-1.14375841998,-0.966273754928,2.96498147295
-1.15853015663,-0.938148792742,2.98933517546
-1.19715979049,-0.759418651556,3.02541604673
-1.21296435564,-0.728215494934,3.05118074975
-1.20259923545,-0.678941819207,3.01597948776
-0.13191382592,0.175940482956,0.491336314574
-0.131349819867,0.180890809254,0.488825295351
-0.139306300816,0.198852533795,0.501204621504
-1.12022262854,-0.992435407214,2.96360559673
-1.01956656804,-0.941120305364,2.77130746453
-0.957254408531,-1.02808168105,2.78787900567
-0.922326533999,-1.04265573109,2.75813721927
-0.903697442751,-1.12108535171,2.78612010441
-0.887398659468,-1.05722978112,2.72839543286
-0.849860276576,-1.11042641953,2.70318245707
-0.798142461626,-1.10018708635,2.62350972907
-0.126117969758,-0.086463129815,0.629949422167
-0.128625484128,-0.0813997406187,0.635000626064
-0.130849992344,-0.0757815452909,0.639151209656
