-3.71489173226,1.06518149796,19.5241183015
-3.7144613511,1.06951362493,19.5235480653
-3.71426875279,1.07296865379,19.5220823372
-3.71395726305,1.07686223171,19.5210643551
-3.71364577331,1.08075580962,19.520046373
-3.71309296307,1.08556799068,19.5199144888
-3.66655171159,1.26678543774,19.6875708697
-2.89263741643,4.28762920434,22.4695027992
-2.84110803574,4.51566109631,22.6332604235
-3.66468592134,1.29010755342,19.6814732655
-3.66476792972,1.2937565202,19.6780099077
-3.66484930801,1.29737745094,19.6745731599
-3.73459793033,0.625591154726,19.7110408458
-3.73455974536,0.630580697084,19.7074568299
-3.73033604991,0.68487136303,19.6925071708
-3.72986040083,0.689321842936,19.692098864
-3.72972905601,0.693949296079,19.6893807119
-3.72793519799,0.711887048498,19.6869567027
-3.72757316686,0.716412386757,19.6857735458
-3.73626046022,0.741779829218,19.6114685662
-3.73603853603,0.745678658989,19.6098809799
-3.73572542734,0.749592473516,19.6088577068
-3.73541231866,0.753506288044,19.6078344338
-3.73509920998,0.757420102571,19.6068111608
-3.73478610129,0.761333917099,19.6057878877
-3.73447299261,0.765247731626,19.6047646147
-3.73397156674,0.769262936476,19.6048527757
-3.73375233178,0.773131081949,19.6032717313
-3.73353366655,0.776989175209,19.6016947956
-3.73341033353,0.780771691421,19.5995738072
-3.73309803642,0.784675361416,19.5985531864
-3.73288106712,0.788503532024,19.5969884812
-3.73256917421,0.792402149449,19.5959691815
-3.73216114508,0.796386371403,19.5954913243
-3.73175205697,0.800380933784,19.5950122269
-3.73153655086,0.804193711393,19.5934500828
-3.7313216026,0.807996619148,19.5918919826
-3.73091195663,0.812001051384,19.5914088414
-3.7306978168,0.815793853997,19.5898533831
-3.73028736241,0.819808391375,19.5893675999
-3.73007403099,0.823591088846,19.5878147837
-3.72996010821,0.82723863225,19.585737847
-3.72945024519,0.831388323696,19.5857761842
-3.72933793299,0.835015735089,19.5837045111
-3.72912665083,0.838764194459,19.5821650025
-3.72861529215,0.842938318651,19.5821940534
-3.72830380242,0.846831896567,19.5811760712
-3.72799231268,0.850725474483,19.5801580891
-3.72768082294,0.8546190524,19.579140107
-3.7273693332,0.858512630316,19.5781221248
-3.72695510197,0.862577263093,19.5776217865
-3.72664320907,0.866475880518,19.5766024867
-3.72622749994,0.870556101316,19.5760995305
-3.72622705685,0.873901249284,19.5735378316
-3.72591596924,0.877789800703,19.5725211637
-3.72560488163,0.881678352123,19.5715044957
-3.72539841252,0.885366649069,19.5699807167
-3.72508772599,0.889250186953,19.5689653595
-3.72477703947,0.893133724837,19.5679500024
-3.72446635294,0.897017262721,19.5669346452
-3.72415566642,0.900900800605,19.5659192881
-3.72373835595,0.90500966064,19.565404488
-3.72353429336,0.908667876374,19.5638885738
-3.72322360684,0.912551414258,19.5628732166
-3.72291292031,0.916434952142,19.5618578595
-3.72260223379,0.920318490026,19.5608425023
-3.72229154726,0.92420202791,19.5598271452
-3.72167017421,0.931969103678,19.5577964309
-3.72135948768,0.935852641563,19.5567810737
-3.72093856743,0.940006623415,19.5562544765
-3.72051655898,0.944171344473,19.5557265179
-3.72020506924,0.948064922389,19.5547085358
-3.72000530459,0.951672277673,19.5532044727
-3.71991760512,0.954980580992,19.5512220164
-3.71949536853,0.959153868868,19.5506889308
-3.719184682,0.963037406752,19.5496735737
-3.7189867457,0.966616192772,19.5481798672
-3.71867645923,0.970494730032,19.5471658175
-3.71836617276,0.974373267292,19.5461517677
-3.7179419359,0.978571558288,19.545612145
-3.71774559982,0.982130341813,19.5441236683
-3.71720551607,0.986669240449,19.5440544611
-3.71677868213,0.990894279467,19.5435107323
-3.71658334085,0.994446343288,19.5420211252
-3.71615570266,0.9986814353,19.541474768
-3.71596116562,1.00222344613,19.5399877893
-3.71553272318,1.00646859113,19.5394388037
-3.71522123345,1.01036216905,19.5384208216
-3.71502790278,1.01388910039,19.5369377855
-3.71459825397,1.01814932488,19.5363848573
-3.71428676423,1.0220429028,19.5353668752
-3.71385560006,1.02631919493,19.5348111982
-3.71354370716,1.03021781235,19.5337918984
-3.71323181425,1.03411642978,19.5327725987
-3.71304080529,1.03761721446,19.5312949467
-3.71285028949,1.04110896032,19.5298211098
-3.71253920188,1.04499751174,19.5288044419
-3.71222811426,1.04888606316,19.5277877739
-3.71191702665,1.05277461458,19.526771106
-3.71172820538,1.05624231597,19.525305002
-3.71129485142,1.06055171742,19.5247377701
-3.71098376381,1.06444026884,19.5237211021
-3.7106726762,1.06832882026,19.5227044342
-3.71048545928,1.07177646751,19.5212435734
-3.71017477276,1.07566000539,19.5202282162
-3.70986408623,1.07954354328,19.5192128591
-3.70930292844,1.08434014946,19.5190791611
-2.80304822088,4.47265997087,22.6441953668
-2.78637016613,4.56319028433,22.6801085551
-2.79667420438,4.55233428089,22.6233643918
-2.8067092451,4.5417616846,22.5681015933
-2.81648568625,4.53146154049,22.5142628982
-3.69446998336,0.666850223499,19.8916151769
-3.69340736464,0.692183362372,19.879243373
-3.73239554328,0.741439456643,19.6103923721
-3.73208284091,0.745348192323,19.6093704269
-3.73177013854,0.749256928002,19.6083484818
-3.73145743617,0.753165663681,19.6073265366
-3.7311447338,0.757074399361,19.6063045915
-3.73083203142,0.76098313504,19.6052826463
-3.73051932905,0.764891870719,19.6042607011
-3.73010757608,0.768850700828,19.6037923758
-3.7297944674,0.772764515355,19.6027691028
-3.72968082631,0.776557981805,19.6006453297
-3.72956777281,0.78033183391,19.5985325378
-3.72915638705,0.784295276267,19.5980586168
-3.72904483357,0.78804427919,19.5959552312
-3.7286333036,0.792012567658,19.5954785914
-3.72822070834,0.795991128541,19.5950007177
-3.72790881544,0.799889745966,19.593981418
-3.72780048311,0.803598484868,19.5918885594
-3.7274893955,0.807487036288,19.5908718914
-3.72697313673,0.81158559824,19.5909235188
-3.72676436518,0.815374035156,19.5893706986
-3.72645287544,0.819267613072,19.5883527164
-3.7261413857,0.823161190988,19.5873347343
-3.72593395744,0.826929793385,19.5857885517
-3.72562286982,0.830818344805,19.5847718838
-3.72531178221,0.834706896224,19.5837552158
-3.7250006946,0.838595447644,19.5827385479
-3.72479500447,0.842339291666,19.5812002847
-3.72437851937,0.846372550483,19.580705212
-3.72417363142,0.850106367435,19.5791695704
-3.72375634414,0.854149653322,19.5786718761
-3.72344525653,0.858038204741,19.5776552081
-3.72313416892,0.861926756161,19.5766385402
-3.7228230813,0.86581530758,19.5756218722
-3.72262019879,0.869524056856,19.5740927846
-3.72241783876,0.873223255015,19.5725676349
-3.72210755228,0.877101792275,19.5715535851
-3.72179726581,0.880980329535,19.5705395354
-3.7215962243,0.884660037901,19.5690209164
-3.72106676616,0.888941746276,19.5690159989
-3.7208664064,0.892615941315,19.5674973862
-3.72044539311,0.896708822045,19.5669852845
-3.72013470658,0.900592359929,19.5659699274
-3.71982402006,0.904475897813,19.5649545702
-3.71951333353,0.908359435697,19.5639392131
-3.71931497404,0.912008627616,19.5624271375
-3.71900468757,0.915887164876,19.5614130878
-3.7186944011,0.919765702137,19.5603990381
-3.71838411463,0.923644239397,19.5593849884
-3.71818746239,0.927269082375,19.557880714
-3.71776354169,0.931401313917,19.5573568889
-3.71745325521,0.935279851177,19.5563428392
-3.71702784133,0.93942773877,19.5558163559
-3.7167171548,0.943311276655,19.5548009987
-3.71640646827,0.947194814539,19.5537856416
-3.71609578175,0.951078352423,19.5527702844
-3.71590182286,0.954672537478,19.5512725905
-3.71570836283,0.958257478356,19.5497787486
-3.71539847538,0.962131027854,19.548766003
-3.71497096344,0.966308149258,19.5482304413
-3.71477870049,0.969878126849,19.5467405116
-3.71446881304,0.973751676347,19.5457277659
-3.7141589256,0.977625225845,19.5447150203
-3.71372981756,0.981822298299,19.5441742424
-3.71341953109,0.985700835559,19.5431601927
-3.71298891649,0.989913731265,19.5426167129
-3.71279895814,0.993457910079,19.5411320932
-3.71236754344,0.997680807033,19.5405859986
-3.71205685691,1.00156434492,19.5395706414
-3.71174617039,1.0054478828,19.5385552843
-3.71143548386,1.00933142069,19.5375399271
-3.71100175201,1.01358026152,19.5369884902
-3.71081411081,1.01709849645,19.5355092128
-3.7102554091,1.02173366472,19.5354176454
-3.70994391936,1.02562724263,19.5343996633
-3.70975740155,1.0291344672,19.5329218184
-3.70957136471,1.03263264799,19.5314477842
-3.70900945015,1.03730797638,19.5313457169
-3.70882413871,1.04080012146,19.5298718145
-3.70863930513,1.04428326164,19.5284017128
-3.70820196349,1.0485772243,19.5278384786
-3.70814466107,1.05163596898,19.5259213472
-3.70770724555,1.0559338753,19.5253556413
-3.70739655903,1.05981741318,19.5243402842
-3.70721380166,1.06327158076,19.522879198
-3.70690351519,1.06715011802,19.5218651483
-3.70659322872,1.07102865528,19.5208510986
-3.70641173945,1.07446396329,19.5193963785
-3.706101852,1.07833751278,19.5183836328
-3.70553243987,1.08311864048,19.5182481413
-2.80520798924,4.39512587541,22.4408130125
-2.52950626604,5.43831969065,23.3143777421
-3.69252483148,0.603283750265,19.9110963765
-3.69226046033,0.609815184766,19.9079307139
-3.69175907365,0.616082447741,19.9062921281
-3.69077637995,0.621898831955,19.907693535
-3.69097563041,0.635475806534,19.8968838558
-3.68898252478,0.66038934665,19.8903701712
-3.68872764536,0.666749032277,19.887273407
-3.68823039715,0.672964564957,19.8856483461
-3.68773314894,0.679180097638,19.8840232852
-3.68748136717,0.685487991904,19.8809459679
-3.68723062025,0.691769960333,19.8778812986
-3.68673541576,0.697959946788,19.8762629168
-3.72866119639,0.737220279013,19.6114652851
-3.72834849401,0.741129014693,19.61044334
-3.72813739888,0.74501858222,19.6088611973
-3.72772308927,0.748946486051,19.6083994496
-3.7274103869,0.752855221731,19.6073775045
-3.72730306439,0.756695315962,19.6052445508
-3.72699117149,0.760593933386,19.6042252511
-3.72667927858,0.764492550811,19.6032059514
-3.7262636162,0.768440602193,19.602737473
-3.72605549278,0.77228978566,19.601167352
-3.72584790741,0.776129017912,19.5996012901
-3.72564085802,0.779958337487,19.5980392718
-3.72522492794,0.783916173744,19.5975653259
-3.7249134382,0.78780975166,19.5965473437
-3.72460194846,0.791703329577,19.5955293616
-3.72439650757,0.795512543165,19.5939726
-3.72408541995,0.799401094584,19.592955932
-3.72366747925,0.803384063325,19.5924754152
-3.72346324473,0.807178197423,19.5909225961
-3.72293656375,0.811275959907,19.5909743547
-3.7228410695,0.814955300262,19.5888892602
-3.72263816379,0.818729623685,19.5873430669
-3.72232747727,0.822613161569,19.5863277097
-3.72212549415,0.826372764379,19.5847868057
-3.72181520768,0.830251301639,19.583772756
-3.72161414309,0.833996247059,19.5822371192
-3.72108473116,0.838147313106,19.5822662811
-3.72077404464,0.84203085099,19.581250924
-3.72046335811,0.845914388874,19.5802355668
-3.72026377533,0.84964398794,19.5787025073
-3.71984198506,0.853681464643,19.5782048525
-3.71941910576,0.857729365877,19.5777059128
-3.71922061201,0.861448540411,19.5761741382
-3.71890992548,0.865332078295,19.5751587811
-3.71848584292,0.869395020135,19.574655909
-3.7184020565,0.872915211501,19.572618209
-3.71831870052,0.876417318391,19.5705909774
-3.71800921108,0.880285892938,19.5695795324
-3.71747119708,0.884550823281,19.5695760598
-3.71716091061,0.888429360542,19.56856201
-3.71708074274,0.891891616579,19.5665451975
-3.71654033767,0.896186435062,19.5665339106
-3.7162300512,0.900064972322,19.5655198608
-3.71591976473,0.903943509582,19.5645058111
-3.71560947826,0.907822046842,19.5634917614
-3.71541639418,0.911467237012,19.5619822058
-3.71510650673,0.91534078651,19.5609694601
-3.71491431662,0.918971638409,19.5594650828
-3.71448673184,0.923087885505,19.5589439688
-3.71429533773,0.926708787503,19.5574421928
-3.71410443462,0.930320400501,19.5559442695
-3.71367635884,0.934445936597,19.5554193029
-3.71324718206,0.938582083495,19.5548929861
-3.71293729461,0.942455632993,19.5538802404
-3.71262740716,0.946329182491,19.5528674947
-3.71219632707,0.950485956704,19.5523372143
-3.71200763227,0.954076281486,19.5508420034
-3.71181942217,0.95765738388,19.5493506331
-3.71150993272,0.961525958427,19.5483391882
-3.71107796993,0.965696929979,19.5478037664
-3.71089095383,0.969263107521,19.5463162982
-3.71058146439,0.973131682069,19.5453048533
-3.7101483076,0.977317578472,19.5447655293
-3.70983842015,0.98119112797,19.5437527837
-3.70952853271,0.985064677467,19.542740038
-3.70921864526,0.988938226965,19.5417272923
-3.70890875781,0.992811776463,19.5407145467
-3.70847288942,0.997028403826,19.5401686176
-3.70816260294,1.00090694109,19.5391545678
-3.70785231647,1.00478547835,19.5381405181
-3.70754203,1.00866401561,19.5371264684
-3.70723174353,1.01254255287,19.5361124187
-3.70679315098,1.01679005578,19.5355598522
-3.70648246445,1.02067359366,19.534544495
-3.70604233839,1.02493707692,19.533989191
-3.70573125078,1.02882562833,19.5329725231
-3.70568031117,1.03193523917,19.53104217
-3.70510907555,1.03660273117,19.5309391872
-3.70519010846,1.03929437043,19.5285615986
-3.70474945176,1.04357085095,19.5280000208
-3.70430765877,1.04785835885,19.5274369949
-3.70412887882,1.05132792547,19.5259719213
-3.70395055868,1.05478856843,19.5245106159
-3.70364067123,1.05866211792,19.5234978702
-3.70333078379,1.06253566742,19.5224851245
-3.70302089634,1.06640921692,19.5214723789
-3.70284422825,1.06984604575,19.5200187292
-3.70253473881,1.07371462029,19.5190072842
-3.70235892092,1.07713767015,19.5175586611
-3.70191575992,1.08145176939,19.5169843943
-3.66623417106,1.21262899907,19.6249438032
-3.66636793363,1.21957375201,19.6192346957
-2.50434072156,5.31319260935,23.2623359497
-2.50055249171,5.36054494974,23.2499556051
-3.68751650767,0.597610821827,19.9067355977
-3.68652231703,0.6033142675,19.9081301168
-3.68627147906,0.609818571671,19.9049837195
-3.6857721702,0.61605986231,19.9033519241
-3.68552340204,0.622524361943,19.9002219131
-3.68527566056,0.628962182428,19.8971048197
-3.68477841235,0.635177715108,19.8954797588
-3.68453271517,0.641576221847,19.8923788496
-3.68278941952,0.66003984583,19.8889795152
-3.68254781819,0.666387154906,19.8858919917
-3.68205159395,0.672589888171,19.8842702773
-3.68155536971,0.678792621435,19.8826485628
-3.68105914546,0.6849953547,19.8810268483
-3.6808215964,0.691278335514,19.8779620128
-3.68032639191,0.697468321969,19.876343631
-3.72440789166,0.740804872604,19.6099327199
-3.72430847017,0.7446711565,19.6077959174
-3.72399698044,0.748564734416,19.6067779353
-3.7236854907,0.752458312333,19.6057599532
-3.72348123292,0.756318190106,19.6041899842
-3.72317014531,0.760206741525,19.6031733162
-3.72275102149,0.764139046081,19.6027060068
-3.72222181187,0.768130562572,19.6027883748
-3.72201891981,0.771980147328,19.6012181879
-3.72192579486,0.775760947203,19.5991066444
-3.72172406922,0.779585804167,19.5975472777
-3.72141338269,0.783469342051,19.5965319206
-3.72099253202,0.787426601462,19.5960566406
-3.7206814444,0.791315152881,19.5950399726
-3.72048132311,0.795119955704,19.5934858491
-3.7202817172,0.798914960044,19.591935728
-3.71985995006,0.802887031472,19.5914551348
-3.71954926354,0.806770569356,19.5904397777
-3.71923857701,0.81065410724,19.5894244205
-3.71892789049,0.814537645125,19.5884090634
-3.71873028484,0.818307646345,19.5868654793
-3.71853318743,0.822067951193,19.5853258653
-3.7181097119,0.826064720865,19.5848373798
-3.71791341254,0.829815050188,19.583300374
-3.71760352509,0.833688599686,19.5822876283
-3.71717885248,0.837700332646,19.5817952306
-3.71686856601,0.841578869906,19.5807811809
-3.71667386276,0.845309248179,19.5792493913
-3.71636397531,0.849182797677,19.5782366456
-3.7159377066,0.853214481686,19.5777390317
-3.71562742013,0.857093018947,19.576724982
-3.71531713366,0.860971556207,19.5757109323
-3.71524170185,0.8645043425,19.5736757565
-3.71469656071,0.868728630727,19.5736828328
-3.71474049238,0.872059356973,19.5711468629
-3.71443139992,0.875922969332,19.5701367153
-3.71412230745,0.879786581692,19.5691265677
-3.71369425462,0.883847215236,19.5686185316
-3.71326510085,0.887918292653,19.5681091889
-3.71295521341,0.891791842151,19.5670964432
-3.71276578629,0.895452938877,19.5655841967
-3.71233543852,0.899538941146,19.5650709519
-3.7121468074,0.903190087971,19.5635613068
-3.71183731795,0.907058662518,19.5625498619
-3.71164956773,0.910695480565,19.561045387
-3.71134047526,0.914559092925,19.5600352394
-3.71090884962,0.91866438616,19.559515527
-3.71072229033,0.922286317643,19.5580149442
-3.71041319786,0.926149930002,19.5570047966
-3.7101041054,0.930013542361,19.555994649
-3.70979501293,0.933877154721,19.5549845014
-3.70948592046,0.93774076708,19.5539743539
-3.70905191294,0.941875833442,19.5534468572
-3.7087424235,0.94574440799,19.5524354122
-3.70855864307,0.949331604158,19.5509439111
-3.70812344461,0.953481557084,19.5504125223
-3.70794045814,0.957058828876,19.5489236159
-3.70775794049,0.960626935352,19.5474385242
-3.70744924399,0.964485598237,19.5464296707
-3.70701318074,0.968649665954,19.5458931731
-3.70670408827,0.972513278313,19.5448830255
-3.70639499581,0.976376890672,19.5438728779
-3.70608590334,0.980240503031,19.5428627303
-3.70577681087,0.984104115391,19.5418525828
-3.7053380396,0.988298728008,19.5413095176
-3.70502855016,0.992167302555,19.5402980726
-3.70458825237,0.996377678588,19.5397523101
-3.70440957126,0.999904451649,19.5382751827
-3.70410008182,1.0037730262,19.5372637378
-3.70365859003,1.00799832708,19.536714073
-3.70334870259,1.01187187658,19.5357013274
-3.7029056748,1.01611304661,19.535148943
-3.70272892769,1.01961897557,19.533675836
-3.70241904025,1.02349252507,19.5326630903
-3.70197481539,1.02774865839,19.5321067938
-3.70166452892,1.03162719565,19.5310927441
-3.70135424244,1.03550573291,19.5300786944
-3.70117949046,1.03898672306,19.5286121077
-3.70086960302,1.04286027256,19.527599362
-3.70069569792,1.04632734621,19.5261378432
-3.70038620847,1.05019592076,19.5251263982
-3.70007671903,1.05406449531,19.5241149532
-3.69976722958,1.05793306986,19.5231035083
-3.69945774014,1.0618016444,19.5220920633
-3.6994231349,1.06481083325,19.5201994785
-3.69925174791,1.06823651573,19.5187530368
-3.69880574189,1.07252815902,19.5181817714
-3.69849704539,1.0763868219,19.5171729179
-3.69804949923,1.08069442437,19.516598893
-3.69746084111,1.08546931703,19.5164591596
-3.66399569919,1.19828540538,19.6180737517
-3.661895905,1.20895071366,19.6219726382
-3.66294738873,1.2091855877,19.6161695934
-3.662300812,1.21505674308,19.6155834631
-3.66189555223,1.22012243328,19.6142590304
-2.36060708286,5.6672344251,23.5239071451
-3.68628512559,0.60265656997,19.8764515306
-3.68580758557,0.608625753009,19.8748908783
-3.68556957171,0.614823674235,19.8719533499
-3.68388101591,0.619687723189,19.8773196153
-3.67933743473,0.622252995981,19.8988109279
-3.67857634446,0.628258072438,19.8986747068
-3.67807806805,0.634486457467,19.8970462856
-3.67811049346,0.641083584644,19.89245973
-3.67761426921,0.647286317908,19.8908380156
-3.68296600826,0.656960158225,19.8570165577
-3.68297770062,0.663146256805,19.8528113559
-3.67612559648,0.665894517702,19.8859728721
-3.67535944906,0.671977257424,19.8858104407
-3.67486220085,0.678192790105,19.8841853798
-3.67490777704,0.68459672424,19.8796611088
-3.67441257256,0.690786710695,19.878042727
-3.67391736807,0.69697669715,19.8764243452
-3.7206994326,0.740455145563,19.6083073606
-3.72038834499,0.744343696983,19.6072906927
-3.72007725737,0.748232248402,19.6062740247
-3.71976616976,0.752120799822,19.6052573568
-3.71945508215,0.756009351241,19.6042406888
-3.71925654201,0.75985967407,19.6026747028
-3.71905851318,0.763700081189,19.6011127496
-3.71863516896,0.767626749838,19.6006439885
-3.71821073169,0.771563556919,19.600174017
-3.71801379591,0.775393825607,19.5986132742
-3.71793133134,0.779151259346,19.5965165768
-3.71750708082,0.78309276749,19.596042501
-3.71731155645,0.786898358341,19.5944910854
-3.71688650788,0.79084984201,19.5940144015
-3.71680704486,0.794562748403,19.59193221
-3.71638189411,0.798519006834,19.5914528484
-3.71607200666,0.802392556332,19.5904401027
-3.71587857653,0.806168472044,19.5888978751
-3.71556908708,0.810037046591,19.5878864301
-3.71525959763,0.813905621138,19.5868749852
-3.71483245688,0.817886754323,19.5863891201
-3.71464061874,0.821642770233,19.5848520953
-3.7143311293,0.82551134478,19.5838406503
-3.71414018028,0.829252762882,19.5823088659
-3.71371215041,0.833248493874,19.5818177604
-3.71340266096,0.837117068421,19.5808063154
-3.71321290288,0.84084359996,19.5792784231
-3.71278368207,0.844854217515,19.5787834255
-3.71247419263,0.848722792063,19.5777719805
-3.71216470318,0.85259136661,19.5767605355
-3.71185521374,0.856459941157,19.5757490906
-3.71166744055,0.860161661756,19.5742276852
-3.71135834809,0.864025274115,19.5732175376
-3.71117145196,0.867712561074,19.5717013242
-3.71086275546,0.871571223959,19.5706924707
-3.71055405896,0.875429886844,19.5696836171
-3.71024536245,0.879288549729,19.5686747636
-3.70981288576,0.883343335911,19.5681667996
-3.70950379329,0.887206948271,19.567156652
-3.70919470083,0.89107056063,19.5661465044
-3.70901057644,0.894723201269,19.5646393494
-3.7085765159,0.898797785348,19.5641262093
-3.70826742343,0.902661397708,19.5631160617
-3.70795833096,0.906525010067,19.5621059141
-3.7076492385,0.910388622426,19.5610957665
-3.70746709392,0.914016515693,19.5595950817
-3.70715839742,0.917875178578,19.5585862282
-3.7067219611,0.921979459504,19.5580653237
-3.70654100441,0.925592504348,19.5565685211
-3.70623230791,0.929451167233,19.5555596675
-3.7059236114,0.933309830118,19.554550814
-3.7056149149,0.937168493003,19.5535419604
-3.7053062184,0.941027155888,19.5525331069
-3.70499752189,0.944885818773,19.5515242534
-3.70468882539,0.948744481658,19.5505153998
-3.70438012889,0.952603144543,19.5495065463
-3.70407143238,0.956461807428,19.5484976927
-3.70389409832,0.96002611267,19.547015046
-3.70358579677,0.963879838745,19.5460074832
-3.70314534287,0.968037796083,19.5454711321
-3.70270375904,0.972206420174,19.544933405
-3.70252794987,0.975755121852,19.543453425
-3.70221925336,0.979613784737,19.5424445715
-3.70191055686,0.983472447622,19.5414357179
-3.70160186036,0.987331110507,19.5404268644
-3.70129316385,0.991189773392,19.5394180108
-3.70098446735,0.995048436277,19.5384091573
-3.70067577085,0.998907099162,19.5374003037
-3.70023101932,1.00311531905,19.5368522243
-3.69992192685,1.00697893141,19.5358420767
-3.69974968133,1.01048308782,19.5343737431
-3.69930374192,1.01470615613,19.5338217815
-3.69885665703,1.01894007214,19.5332684021
-3.69854716759,1.02280864668,19.5322569571
-3.69837646452,1.0262969932,19.5307913387
-3.69778864736,1.03093197669,19.5306881081
-3.69761869925,1.03441437032,19.5292226222
-3.69744918713,1.03788783028,19.527760896
-3.69699972036,1.04215151942,19.5271997323
-3.69669023091,1.04602009397,19.5261882874
-3.69652190973,1.04947866736,19.5247304532
-3.69621281726,1.05334227972,19.5237203056
-3.69604532329,1.05678704244,19.5222675006
-3.69587825791,1.06022299063,19.520818413
-3.69556995636,1.06407671671,19.5198108502
-3.69540371186,1.06749895997,19.5183667533
-3.69495335325,1.07178416886,19.5177957246
-3.69464505169,1.07563789493,19.5167881618
-3.69433675014,1.07949162101,19.515780599
-3.69388444777,1.08379768263,19.5152055258
-3.66096284734,1.19093485451,19.6115862769
-3.66152209759,1.19285306827,19.607443963
-3.66183840451,1.19550450167,19.6040513473
-3.66191686956,1.19889135991,19.6013808918
-3.66081399107,1.20611498364,19.6021740756
-3.66065834776,1.21025504513,19.6001947942
-3.68107910851,0.596742439369,19.875322911
-3.68060345373,0.602688057239,19.8737684198
-3.67987798376,0.608393146702,19.8735885967
-3.68039850735,0.615260213439,19.8665769537
-3.67992565268,0.621170830366,19.8650316135
-3.67994920761,0.62748474598,19.8608032987
-3.67972587248,0.633561240855,19.857933366
-3.67190746427,0.634190407575,19.8956418534
-3.68098822548,0.64677876641,19.8431676776
-3.6800642728,0.658328044916,19.8401481003
-3.67862214103,0.66359152996,19.84375004
-3.67865035057,0.669644956836,19.8396687384
-3.67843294221,0.675547094599,19.8368835025
-3.67747465119,0.68114418892,19.8379091487
-3.67750721479,0.687118557205,19.8338581252
-3.67803093165,0.693189018613,19.8273498965
-3.67732548789,0.69887082618,19.8270876043
-3.71678901481,0.740133543973,19.6078021279
-3.71670970035,0.743981666494,19.6056817969
-3.71628387681,0.747877888635,19.6052195227
-3.71597359034,0.751756425895,19.6042054729
-3.71578003801,0.755602314987,19.6026435599
-3.7153530174,0.759513500415,19.6021773735
-3.71516026312,0.763349413983,19.6006180685
-3.71485037568,0.76722296348,19.5996053229
-3.71442215798,0.771149112196,19.5991352243
-3.71434902508,0.774912623418,19.597039879
-3.71415805311,0.778718944073,19.5954911641
-3.71361082589,0.782717161471,19.5955543402
-3.71342055675,0.786518347059,19.5940055441
-3.7131110673,0.790386921607,19.5929940992
-3.71268116356,0.794337809964,19.5925161032
-3.71249208841,0.798124070701,19.5909712092
-3.71218259896,0.801992645248,19.5899597643
-3.71187310952,0.805861219795,19.5889483193
-3.71156362007,0.809729794342,19.5879368743
-3.71137622092,0.813491455306,19.5863998358
-3.71106712845,0.817355067665,19.5853896882
-3.71075803599,0.821218680024,19.5843795406
-3.71044894352,0.825082292384,19.583369393
-3.71013985105,0.828945904743,19.5823592454
-3.7097066834,0.832941241625,19.5818682046
-3.70952166612,0.836673129461,19.5803389502
-3.70921257366,0.840536741821,19.5793288026
-3.70890348119,0.84440035418,19.578318655
-3.70859438872,0.848263966539,19.5773085075
-3.70815923618,0.85228411436,19.5768109797
-3.70784974673,0.856152688908,19.5757995348
-3.70766711133,0.859854803617,19.5742780647
-3.70735801886,0.863718415976,19.5732679171
-3.70730324251,0.867230613913,19.571246804
-3.70699494096,0.871084339989,19.5702392412
-3.70655885434,0.875123421805,19.5697339321
-3.70637833785,0.87879179214,19.5682241156
-3.7060700363,0.882645518215,19.5672165527
-3.70576173474,0.886499244291,19.5662089899
-3.70545343319,0.890352970366,19.5652014271
-3.70514513163,0.894206696442,19.5641938643
-3.70470667532,0.898275399114,19.5636808108
-3.70439797882,0.902134061999,19.5626719573
-3.70422022697,0.905767874668,19.5611711759
-3.70391192542,0.909621600744,19.5601636131
-3.70373502176,0.913241202832,19.5586679545
-3.70329532231,0.917329052895,19.5581484875
-3.70298702075,0.92118277897,19.5571409247
-3.7026787192,0.925036505045,19.5561333619
-3.70250339131,0.928636410361,19.554642853
-3.70219548369,0.932485212243,19.5536365776
-3.70175381454,0.936597683272,19.5531106734
-3.70157966846,0.940182816008,19.5516240269
-3.70127176085,0.94403161789,19.5506177515
-3.70069362078,0.948438016619,19.5505657148
-3.70052060832,0.952012587574,19.5490804222
-3.70021230677,0.955866313649,19.5480728594
-3.69990400521,0.959720039725,19.5470652966
-3.69973222278,0.963275627301,19.5455863747
-3.69942431516,0.967124429184,19.5445800993
-3.69897910055,0.971281217951,19.5440426082
-3.69867079899,0.975134944027,19.5430350454
-3.69836249744,0.978988670102,19.5420274826
-3.69805419589,0.982842396177,19.5410199198
-3.69774589433,0.986696122253,19.540012357
-3.69743759278,0.990549848328,19.5390047941
-3.69698926274,0.994741971238,19.5384594722
-3.69682098967,0.998257300479,19.5369896685
-3.69651268812,1.00211102655,19.5359821057
-3.69606317323,1.00631795989,19.5354329116
-3.69575447672,1.01017662278,19.5344240581
-3.69544578022,1.01403528566,19.5334152045
-3.69513708372,1.01789394855,19.532406351
-3.69482838721,1.02175261143,19.5313974974
-3.6943761353,1.02599013506,19.5308417182
-3.69421099421,1.0294699372,19.5293797903
-3.6939022977,1.03332860009,19.5283709368
-3.6935936012,1.03718726297,19.5273620833
-3.69313976543,1.0414445845,19.5268011279
-3.69283067297,1.04530819686,19.5257909803
-3.6925215805,1.04917180922,19.5247808327
-3.69250476791,1.05220946554,19.5228837892
-3.69219646636,1.05606319161,19.5218762264
-3.6918881648,1.05991691769,19.5208686636
-3.6917266248,1.06334447624,19.5194232151
-3.69141871719,1.06719327812,19.5184169397
-3.69111080957,1.07104208,19.5174106643
-3.69080290196,1.07489088189,19.516404389
-3.69049499435,1.07873968377,19.5153981136
-3.69003835548,1.08303927414,19.5148232868
-3.65897850545,1.18086686306,19.6025205206
-3.65930250852,1.18353775514,19.5992007863
-3.65723467362,1.19360127388,19.6027261308
-3.65708560305,1.19774148729,19.6007555981
-3.65837772379,1.19732333632,19.5947283296
-1.90511994409,6.77457186356,24.5091375296
-3.67843081628,0.593562243032,19.8607627165
-3.67796616756,0.599370286762,19.8592441943
-3.67799684293,0.605658801142,19.8551112091
-3.67728590301,0.611215894201,19.8549003249
-3.6773191279,0.61744693328,19.8507919189
-3.67811722321,0.630337006402,19.8388920118
-3.67766136449,0.636035176378,19.8374022162
-3.67696056849,0.641565582392,19.8371609651
-3.67699452008,0.647587887587,19.8331816085
-3.67702821621,0.653564879129,19.8292321938
-3.67633018917,0.659097053831,19.8289769093
-3.6748843409,0.664276424873,19.8324324368
-3.6754219082,0.670450438218,19.8260085489
-3.67595143126,0.676532062632,19.8196807892
-3.67574515047,0.682256050145,19.817010873
-3.67504994612,0.687800500083,19.8167346383
-3.67484534843,0.693503449109,19.8140702226
-3.67537423885,0.699357835301,19.8078895914
-3.67443843645,0.704845699438,19.8087711276
-3.7130089698,0.739800469624,19.6067450516
-3.71281947364,0.743656774792,19.6051818829
-3.71238919491,0.747547568619,19.6047195603
-3.71207930746,0.751421118117,19.6037068146
-3.7118910053,0.755262498433,19.602147548
-3.71170318621,0.759094024138,19.6005922816
-3.71127202641,0.762999647528,19.6001246581
-3.71108500128,0.766821248856,19.5985719864
-3.71065304752,0.770736796622,19.5981017682
-3.71046681635,0.774548473574,19.5965516912
-3.71040408515,0.778288841233,19.5944709991
-3.70997236581,0.782209047527,19.5939967321
-3.70966366931,0.786067710412,19.5929878786
-3.70923044648,0.790002923011,19.5925111008
-3.70892135402,0.793866535371,19.5915009532
-3.70861226155,0.79773014773,19.5904908056
-3.70830316909,0.801593760089,19.5894806581
-3.70812018679,0.805361024837,19.5879436108
-3.70781149029,0.809219687722,19.5869347573
-3.70750279379,0.813078350606,19.5859259038
-3.70732106961,0.816826101987,19.5843953711
-3.70688540078,0.820795676376,19.5839081967
-3.7067044665,0.824533554138,19.5823802454
-3.70639616495,0.828387280214,19.5813726826
-3.70595931127,0.832371665031,19.580881636
-3.70565061477,0.836230327916,19.5798727825
-3.70534191826,0.840088990801,19.578863929
-3.70503322176,0.843947653686,19.5778550754
-3.70485465717,0.847655910591,19.5763348686
-3.70454635562,0.851509636667,19.5753273058
-3.70410713225,0.855523642341,19.5748285148
-3.70379843574,0.859382305226,19.5738196612
-3.70348973924,0.863240968111,19.5728108077
-3.7033131494,0.866924540968,19.5712970546
-3.70313701085,0.870598700275,19.5697871699
-3.70296132185,0.874263482069,19.5682811389
-3.70265380717,0.878107372326,19.5672761477
-3.70234629249,0.881951262583,19.5662711565
-3.70203877781,0.88579515284,19.5652661653
-3.70173126313,0.889639043097,19.564261174
-3.70142374845,0.893482933354,19.5632561828
-3.70111623377,0.897326823611,19.5622511916
-3.70094334421,0.900952869115,19.5607566848
-3.70063622146,0.904791860267,19.5597529745
-3.70019368973,0.908858494382,19.559236218
-3.70002197597,0.91246984257,19.5577455538
-3.69957866037,0.916546274896,19.5572262355
-3.69927114569,0.920390165152,19.5562212443
-3.69896363101,0.924234055409,19.5552162531
-3.69865611633,0.928077945666,19.5542112619
-3.69834860165,0.931921835923,19.5532062707
-3.69804108697,0.93576572618,19.5522012794
-3.69773357229,0.939609616437,19.5511962882
-3.69756499399,0.943181771783,19.5497158711
-3.69711854293,0.947297396951,19.5491863058
-3.6969507485,0.950859754087,19.5477084504
-3.69664362575,0.954698745238,19.5467047401
-3.69605513572,0.959121143566,19.5466428364
-3.69574722811,0.962969945449,19.545636561
-3.69543932049,0.966818747331,19.5446302857
-3.69527345486,0.970360738493,19.5431563585
-3.69510801202,0.973893700996,19.5416861884
-3.6946584255,0.978048519007,19.541146376
-3.69449376652,0.9815716833,19.5396787677
-3.69404339614,0.985736299521,19.5391363936
-3.69373588146,0.989580189778,19.5381314024
-3.69342836678,0.993424080035,19.5371264112
-3.69326527553,0.996927647906,19.5356639264
-3.69295815279,1.00076663906,19.534660216
-3.69250582274,1.00495575081,19.5341114375
-3.69219830806,1.00879964106,19.5331064463
-3.69174442912,1.01300436992,19.5325549812
-3.69128938879,1.01721985791,19.5320021051
-3.69098108723,1.02107358399,19.5309945423
-3.69067278568,1.02492731006,19.5299869795
-3.69036448413,1.02878103614,19.5289794167
-3.69020489105,1.03224837933,19.5275236044
-3.68989698343,1.03609718121,19.526517329
-3.68958907582,1.03994598309,19.5255110537
-3.68913127791,1.04419594044,19.5249491654
-3.68867230708,1.04845678659,19.5243858376
-3.6885146748,1.05190339259,19.5229340398
-3.68835744536,1.05534119062,19.5214859522
-3.68804953775,1.0591899925,19.5204796768
-3.68804418883,1.06219049748,19.5186008506
-3.68773706609,1.06602948864,19.5175971403
-3.68758142687,1.06943617776,19.5161613758
-3.68727469506,1.07327028228,19.515158943
-3.68666304382,1.07798966569,19.5150166044
-3.68620209206,1.0822828038,19.5144420246
-3.65660139252,1.17261407393,19.5951515035
-3.65693103462,1.17527766065,19.5919244394
-3.65819050414,1.17511647124,19.5861540172
-3.65687844645,1.18265503217,19.5874888375
-3.65696963904,1.18596002414,19.584966663
-3.65659170969,1.19068408786,19.583731549
-3.67395004174,0.594669504319,19.8530192643
-3.67399562035,0.600904222748,19.8489570103
-3.67453988726,0.607555966433,19.8424085522
-3.67358499533,0.612789933,19.8434356998
-3.67363160629,0.618909350821,19.8394401918
-3.67540006089,0.626348336267,19.8269349161
-3.67446435455,0.631564593067,19.827887304
-3.67475096788,0.637683898623,19.8228195486
-3.67527569582,0.643894514114,19.8166313998
-3.67483322967,0.649425278772,19.8151853726
-3.67414785758,0.654817541073,19.8149103531
-3.67394829737,0.660486808088,19.8122933181
-3.67374946867,0.666135293738,19.8096858762
-3.67306336507,0.671548337404,19.8094012637
-3.6721276682,0.676883129875,19.8102802486
-3.67266967306,0.682784168238,19.8042065021
-3.67296138913,0.688523691354,19.7993509919
-3.67373022827,0.694330885787,19.7923218418
-3.67305524384,0.699706860439,19.7920104912
-3.67237781652,0.705102291736,19.7916980137
-3.70912349608,0.739480947996,19.6062437721
-3.70918870603,0.743299233609,19.603589315
-3.70863013438,0.747196328921,19.6036731038
-3.70832104192,0.75105994128,19.6026629562
-3.70813803673,0.754891942293,19.6011090219
-3.70782934022,0.758750605178,19.6001001683
-3.70739376452,0.762650778357,19.5996325135
-3.70721194722,0.766467930948,19.5980824612
-3.70690325071,0.770326593833,19.5970736077
-3.70659455421,0.774185256718,19.5960647542
-3.70641399204,0.777982768288,19.5945212497
-3.70623389131,0.78177057513,19.5929816898
-3.7059259837,0.785619377012,19.5919754144
-3.70561807608,0.789468178895,19.590969139
-3.70518078582,0.79339767259,19.5904909985
-3.70474237519,0.797337234027,19.5900116329
-3.70456418272,0.801105124741,19.5884758729
-3.70425588116,0.804958850816,19.5874683101
-3.70394757961,0.808812576892,19.5864607473
-3.70350758917,0.812771885567,19.5859762187
-3.7033309765,0.816520029042,19.5844456216
-3.70302267494,0.820373755118,19.5834380588
-3.70297910345,0.823987616969,19.5813961471
-3.70280383963,0.827707134575,19.5798772397
-3.70223109232,0.831804999599,19.57990011
-3.70192318471,0.835653801482,19.5788938346
-3.70161527709,0.839502603364,19.5778875592
-3.70130736948,0.843351405246,19.5768812839
-3.70099946187,0.847200207128,19.5758750085
-3.70082650069,0.850894848768,19.5743612085
-3.70038364664,0.854897810893,19.5738624578
-3.70007573902,0.858746612775,19.5728561824
-3.69976783141,0.862595414657,19.571849907
-3.69945992379,0.86644421654,19.5708436316
-3.69956170387,0.869758228253,19.5683378719
-3.69911836666,0.873775028395,19.5678327156
-3.69881124391,0.877614019546,19.5668290053
-3.69864150843,0.881260541808,19.5653305738
-3.69819699842,0.88529200185,19.5648215846
-3.69802804481,0.888928750845,19.5633257083
-3.697721313,0.892762855363,19.5623232756
-3.69741458118,0.896596959882,19.5613208429
-3.69710784937,0.9004310644,19.5603184102
-3.69680111756,0.904265168919,19.5593159774
-3.69635426194,0.90832594876,19.5587993226
-3.69604713919,0.912164939911,19.5577956122
-3.69574001644,0.916003931063,19.5567919019
-3.69571512767,0.919360865378,19.5548255269
-3.6954087858,0.923190095687,19.5538243686
-3.6948186482,0.927520904518,19.5537807709
-3.69451152545,0.931359895669,19.5527770605
-3.69420440271,0.935198886821,19.5517733502
-3.69404053125,0.938772109584,19.550294083
-3.69373379944,0.942606214102,19.5492916502
-3.69328303447,0.946715860276,19.5487622192
-3.69312033582,0.950274423139,19.5472867848
-3.692813604,0.954108527658,19.5462843521
-3.69236166622,0.958232833731,19.5457510882
-3.69220014038,0.961776736694,19.5442794866
-3.69174742073,0.965910816034,19.5437436675
-3.69144029798,0.969749807186,19.5427399572
-3.69113317524,0.973588798337,19.5417362468
-3.69097321313,0.977113154768,19.5402697558
-3.69066648132,0.980947259286,19.539267323
-3.690211807,0.985105771792,19.5387251158
-3.68990468425,0.988944762944,19.5377214055
-3.68974628588,0.992449572841,19.5362600249
-3.68943955407,0.99628367736,19.5352575922
-3.68913282226,1.00011778188,19.5342551594
-3.68867619326,1.00430072755,19.5337065641
-3.68851935863,1.00778599091,19.532250294
-3.68821262682,1.01162009543,19.5312478613
-3.68760336945,1.01618212982,19.5311465862
-3.68729585477,1.02002602008,19.530141595
-3.68698834009,1.02386991033,19.5291366038
-3.68652780399,1.02809389559,19.5285800661
-3.68637331073,1.03155769085,19.5271266213
-3.68606579605,1.0354015811,19.5261216301
-3.68575828137,1.03924547136,19.5251166389
-3.68545076669,1.04308936162,19.5241116477
-3.68529784304,1.04652963022,19.5226657504
-3.68483573733,1.05077714213,19.5221016653
-3.68483857689,1.05379524514,19.5202211014
-3.6843764748,1.05804660367,19.5196546194
-3.68422511327,1.06146345417,19.5182162359
-3.68407413658,1.06487161714,19.5167815096
-3.68361164964,1.06913166321,19.5162113705
-3.68346145284,1.07253007776,19.5147791929
-3.68284086107,1.07724155943,19.5146360677
-3.68237561989,1.08152826419,19.5140617355
-3.65595029455,1.15994931935,19.5835944923
-3.65557820095,1.16460043702,19.5823784502
-3.65567171213,1.16789996309,19.5799186004
-3.65530076412,1.17253676105,19.5787063022
-3.65399112525,1.17994257254,19.5799743035
-3.65408982655,1.18320490771,19.5775142817
-3.67308895004,0.59920912914,19.8282717357
-3.67289169636,0.604969925058,19.8256350085
-3.67146049654,0.609606103166,19.8289701533
-3.67156673078,0.62153180853,19.8213048777
-3.67087661929,0.62686295243,19.8210415997
-3.67142576981,0.633107182511,19.8149115328
-3.67196697042,0.639261016506,19.8088702094
-3.67104088612,0.644401019827,19.8097344943
-3.6708494909,0.650017227047,19.807160053
-3.67114842279,0.65588224939,19.8023323404
-3.67216652653,0.662051065908,19.79423668
-3.67197653497,0.667535843787,19.7917356743
-3.66959822875,0.672070476363,19.7991940334
-3.66841501853,0.677223995579,19.8011528751
-3.66996028843,0.683375508391,19.7908068348
-3.67050228874,0.689062569064,19.785044269
-3.67079724856,0.694606431842,19.780427748
-3.66964566871,0.699770199061,19.7822447421
-3.70550691447,0.739139434588,19.6046471284
-3.70532797278,0.742976874455,19.6030946298
-3.70489031137,0.746846886739,19.6026320027
-3.70458200981,0.750700612815,19.6016244399
-3.70440424994,0.754523280102,19.6000758037
-3.7039654067,0.758408064965,19.5996093143
-3.70365710515,0.762261791041,19.5986017515
-3.70334880359,0.766115517116,19.5975941887
-3.70304050204,0.769969243192,19.5965866259
-3.7025993496,0.773878791679,19.5961150691
-3.70255680425,0.777616091395,19.5940381515
-3.70211559738,0.781530421418,19.5935639375
-3.70194098903,0.78531369516,19.5920256008
-3.70163308141,0.789162497042,19.5910193254
-3.70145931164,0.792931203154,19.5894861991
-3.70101726618,0.796860100806,19.5890067747
-3.70084428228,0.800618983668,19.5874762167
-3.7005367676,0.804462873925,19.5864712255
-3.70022925292,0.808306764182,19.5854662342
-3.69978563572,0.812255308335,19.5849816732
-3.69947772811,0.816104110218,19.5839753978
-3.6991698205,0.8199529121,19.5829691224
-3.69913612559,0.823563240764,19.5809310085
-3.69869167952,0.827526215467,19.5804412782
-3.69838416484,0.831370105724,19.5794362869
-3.69835251295,0.834946773038,19.5774097611
-3.69776913548,0.839057886238,19.5774263045
-3.69746162081,0.842901776495,19.5764213133
-3.69729338911,0.846597187674,19.5749087464
-3.69698626636,0.850436178826,19.5739050361
-3.69667914362,0.854275169978,19.5729013258
-3.69651212207,0.857951400148,19.5713951648
-3.69606489812,0.861953152281,19.5708939051
-3.69575777537,0.865792143433,19.5698901947
-3.69573284145,0.869276743925,19.5678905166
-3.69542649958,0.873105974234,19.5668893583
-3.69512015771,0.876935204544,19.5658881999
-3.69481381584,0.880764434854,19.5648870416
-3.69450747397,0.884593665163,19.5638858832
-3.6942011321,0.888422895473,19.5628847249
-3.69389479023,0.892252125783,19.5618835665
-3.69358844836,0.896081356092,19.5608824082
-3.69342577508,0.899695171355,19.5593953318
-3.69311982216,0.903519539833,19.5583954446
-3.69281386924,0.907343908311,19.5573955574
-3.69236308087,0.911398277331,19.5568777748
-3.6922019634,0.914992645267,19.555395783
-3.69189601048,0.918817013745,19.5543958958
-3.69159005756,0.922641382224,19.5533960085
-3.69128410464,0.926465750702,19.5523961213
-3.69083137152,0.930544428879,19.551871983
-3.69037748583,0.934633490516,19.5513465104
-3.69021868777,0.938202889498,19.5498696663
-3.6899123459,0.942032119808,19.548868508
-3.68960600403,0.945861350118,19.5478673496
-3.68929966216,0.949690580427,19.5468661913
-3.68899332029,0.953519810737,19.5458650329
-3.68883648128,0.957060698527,19.5443970236
-3.68838063655,0.961178271356,19.5438627162
-3.68822457544,0.964709435483,19.5423972492
-3.68776795281,0.968836731976,19.5418603995
-3.68731016771,0.9729745357,19.5413221832
-3.68730671668,0.976182540917,19.5393975875
-3.68684892719,0.980324422905,19.5388569245
-3.68654258532,0.984153653214,19.5378557661
-3.68608324047,0.988310953773,19.5373124523
-3.68592990158,0.991812113833,19.5358534494
-3.68546977684,0.99597916281,19.5353075869
-3.68531721784,0.999470574453,19.5338511327
-3.68516504624,1.00295312026,19.532398377
-3.68485909332,1.00677748874,19.5313984898
-3.6845531404,1.01060185722,19.5303986026
-3.68377998824,1.01551279835,19.5307454916
-3.68331594553,1.01972072832,19.5301917173
-3.68332265416,1.02281789444,19.5282905578
-3.68301592235,1.02665199896,19.5272881251
-3.68255149725,1.03086876295,19.5267306502
-3.682560141,1.03393364724,19.5248407076
-3.68241146996,1.03737243657,19.523399392
-3.6817889951,1.04198841703,19.5232783942
-3.68148226329,1.04582252155,19.5222759615
-3.68117553147,1.04965662607,19.5212735288
-3.68102843165,1.05307979879,19.5198349158
-3.68072208978,1.0569090291,19.5188337575
-3.68057575243,1.06031864744,19.5174000687
-3.68026979951,1.06414301591,19.5164001815
-3.67980306416,1.06839672003,19.5158302824
-3.67949672229,1.07222595034,19.5148291241
-3.67902840879,1.0764953577,19.5142564998
-3.67839571065,1.08122297243,19.5141118579
-3.67792419511,1.08552024198,19.513536122
-3.65359461647,1.1563357641,19.5750661664
-3.6532292922,1.16090226608,19.5738722472
-3.65239690418,1.16679241257,19.5738812017
-3.65273166803,1.16936954074,19.5708875105
-3.6514283185,1.17663199055,19.5720866382
-3.67146912659,0.591031453492,19.8159871054
-3.67365634388,0.599021962884,19.8022438836
-3.66987008187,0.601140489145,19.8166027021
-3.66992786391,0.607015919585,19.8128902451
-3.66998523219,0.612849278286,19.8092043717
-3.67028505482,0.618839741072,19.8044259122
-3.66961235311,0.624013930463,19.80414004
-3.66869110124,0.629025733225,19.8049750118
-3.66850664109,0.634589128064,19.8024458788
-3.66954376883,0.640929289737,19.7944205796
-3.66936008268,0.646402945141,19.7919413192
-3.66917704376,0.65185731389,19.7894707946
-3.66947638649,0.657548205908,19.7848714535
-3.66905408141,0.662826960058,19.7834913149
-3.6681470677,0.667887140442,19.7842389735
-3.66772327722,0.673184461792,19.7828539804
-3.66827143886,0.678843394417,19.7772476064
-3.66833297511,0.684264319608,19.7737884242
-3.66749424447,0.694748334607,19.7710473619
-3.70195879334,0.734973588838,19.6051573669
-3.70178460792,0.738811447798,19.6036061985
-3.70147709324,0.742655338055,19.6026012073
-3.7010350705,0.746519994484,19.6021385408
-3.70086206388,0.750343118569,19.6005912248
-3.70068949826,0.754156497376,19.599047853
-3.70024703452,0.758030899083,19.5985812424
-3.70007525277,0.761834479679,19.5970404323
-3.69949553243,0.765764003896,19.597107164
-3.69918762481,0.769612805778,19.5961008886
-3.69874210738,0.773516896322,19.5956293137
-3.69870946112,0.777250350368,19.5935562863
-3.69812550427,0.781224348473,19.5936141881
-3.69809443176,0.784938130882,19.5915463039
-3.69792539354,0.788707417741,19.5900144599
-3.69775678565,0.792467108786,19.5884865158
-3.69731114804,0.796385400044,19.5880070393
-3.6970040253,0.800224391196,19.5870033289
-3.69683659021,0.803969422341,19.5854792176
-3.6965298584,0.807803526859,19.5844767849
-3.695941829,0.811845362681,19.5845113654
-3.69577553431,0.815580355802,19.5829884876
-3.69546841156,0.819419346954,19.5819847772
-3.69530293115,0.823139944933,19.580467054
-3.69513787149,0.826851083091,19.5789531897
-3.69454704332,0.830936320409,19.5789736462
-3.69438273572,0.834642258488,19.5774597559
-3.69407600391,0.838476363006,19.5764573231
-3.69348171156,0.842596484737,19.5764714356
-3.69360616213,0.845997234639,19.5739473979
-3.69329982026,0.849826464949,19.5729462396
-3.69299347839,0.853655695258,19.5719450812
-3.69268713652,0.857484925568,19.5709439229
-3.69252560761,0.861147745285,19.5694440718
-3.69207445278,0.865143386187,19.5689416062
-3.69191370176,0.868796482242,19.5674442974
-3.69160774884,0.87262085072,19.5664444101
-3.69144779348,0.876259832635,19.5649521666
-3.69114222852,0.880079351611,19.5639535473
-3.69068989008,0.884093956154,19.5634447485
-3.69038393716,0.887918324632,19.5624448613
-3.69022553365,0.891537908541,19.5609576893
-3.68977203132,0.895567061588,19.5604450868
-3.68961440374,0.899176946495,19.5589604507
-3.68930883879,0.902996465472,19.5579618314
-3.68900327383,0.906815984448,19.5569632121
-3.68869770888,0.910635503425,19.5559645928
-3.68839214392,0.914455022402,19.5549659735
-3.68823646352,0.91803641498,19.5534901566
-3.68778101401,0.922094060355,19.5529687349
-3.68747544905,0.925913579332,19.5519701156
-3.68701845504,0.929986377892,19.5514461019
-3.6865602991,0.934069531761,19.5509207559
-3.68655875419,0.937372136262,19.5489742577
-3.68610059628,0.941459483326,19.5484464402
-3.68564127349,0.94555722269,19.5479172808
-3.68564205932,0.948830693192,19.5459783997
-3.68533649436,0.952650212169,19.5449797804
-3.68518468378,0.956183232566,19.5435166105
-3.68472536445,0.960289250122,19.5429825418
-3.6844197995,0.964108769099,19.5419839225
-3.68395892584,0.968230062673,19.5414472297
-3.68380866959,0.971747807053,19.5399866839
-3.68350310463,0.975567326029,19.5389880646
-3.68319753968,0.979386845006,19.5379894453
-3.68289197472,0.983206363983,19.536990826
-3.68258640976,0.987025882959,19.5359922067
-3.68228084481,0.990845401936,19.5349935874
-3.68165882917,0.995337216716,19.5349022223
-3.6816697149,0.99848443989,19.5329963488
-3.68136414994,1.00230395887,19.5319977294
-3.68089939664,1.00647374745,19.5314483576
-3.68075302003,1.00994299682,19.5300004908
-3.68044745508,1.0137625158,19.5290018715
-3.67965960874,1.01867927537,19.5293429853
-3.67935287693,1.02251337989,19.5283405526
-3.67936963204,1.02559558984,19.5264489215
-3.67890175233,1.0298002895,19.5258917971
-3.6787577262,1.0332443268,19.524449147
-3.67877594633,1.0362915495,19.5225721638
-3.67847076836,1.04010623126,19.5215748091
-3.67783986744,1.04471743224,19.5214494854
-3.67769737048,1.04813818659,19.5200142978
-3.6772279616,1.05236616919,19.519449711
-3.67708624056,1.05577722454,19.5180170591
-3.67694487849,1.05917964005,19.5165880361
-3.67663970052,1.06299432181,19.5155906815
-3.6761695457,1.06723578147,19.5150212012
-3.675698197,1.07148801158,19.5144502749
-3.67522564988,1.07575105322,19.5138778969
-3.67475189975,1.08002494766,19.5133040618
-3.67393920043,1.08521456012,19.5135863084
-3.6732910317,1.0899826832,19.5134393935
