-0.166913935833,-0.240069996263,0.673302079079
-0.16865766985,-0.233369330332,0.680336001882
-0.241239651742,-0.0176814627256,0.973119220178
-0.301637309313,-0.00563895981459,1.21675297198
-0.300514355683,0.0107900201041,1.21222317038
-0.299399732241,0.0270971281334,1.20772697132
-0.298293346637,0.0432837153497,1.20326400228
-0.298293346637,0.0595704358302,1.20326400228
-0.299399732241,0.0761385144658,1.20772697132
-0.298293346637,0.0921438767912,1.20326400228
-0.296104926326,0.107635099403,1.19443629153
-0.297195107884,0.124258140928,1.19883389624
-0.296104926326,0.139969566278,1.19443629153
-0.297195107884,0.156711654926,1.19883389624
-0.295022713621,0.171674291473,1.19007083181
-0.29288184781,0.18641977188,1.18143494772
-0.29288184781,0.202411026271,1.18143494772
-0.291823024358,0.217612714977,1.17716383622
-0.305057095754,0.244137393973,1.23054780168
-0.335485383796,0.286806566576,1.35329027672
-0.334096846587,0.303861085678,1.34768915668
-0.334096846587,0.322102665703,1.34768915668
-0.335485383796,0.341758747703,1.35329027672
-0.334096846587,0.358585825754,1.34768915668
-0.335485383796,0.378393535122,1.35329027672
-0.332719756007,0.393440578402,1.34213421038
-0.334096846587,0.413310565831,1.34768915668
-0.334096846587,0.431552145857,1.34768915668
-0.334096846587,0.449793725882,1.34768915668
-0.334096846587,0.468035305908,1.34768915668
-0.334096846587,0.486276885933,1.34768915668
-0.332719756007,0.502438926347,1.34213421038
-0.334096846587,0.522760045984,1.34768915668
-0.334096846587,0.54100162601,1.34768915668
-0.332719756007,0.55693810032,1.34213421038
-0.332719756007,0.575104491644,1.34213421038
-0.331353971096,0.590835558929,1.3366248692
-0.332719756007,0.611437274293,1.34213421038
-0.331353971096,0.627019198746,1.3366248692
-0.332719756007,0.647770056941,1.34213421038
-0.332719756007,0.665936448265,1.34213421038
-0.331353971096,0.681294658473,1.3366248692
-0.332719756007,0.702269230914,1.34213421038
-0.332719756007,0.720435622238,1.34213421038
-0.332719756007,0.738602013562,1.34213421038
-0.331353971096,0.753661938108,1.3366248692
-0.331353971096,0.771753758016,1.3366248692
-0.329999353196,0.786616587022,1.33116057382
-0.329999353196,0.80463444523,1.33116057382
-0.329999353196,0.822652303439,1.33116057382
-0.329999353196,0.840670161647,1.33116057382
-0.329999353196,0.858688019856,1.33116057382
-0.156554286621,-0.247139325186,0.667778802892
-0.157199059486,-0.239081261794,0.670529067108
-0.159498200566,-0.233369330332,0.680336001882
-0.162209540805,-0.227971225932,0.691901162943
-0.165014656325,-0.222386420966,0.703866320362
-0.227458625486,-0.0176287782757,0.970219672123
-0.28419400682,-0.00561796675373,1.21222317038
-0.28419400682,0.0107900201041,1.21222317038
-0.283139916404,0.0270971281334,1.20772697132
-0.281055020898,0.0431243559334,1.19883389624
-0.281055020898,0.0593511129323,1.19883389624
-0.281055020898,0.0755778699312,1.19883389624
-0.281055020898,0.0918046269301,1.19883389624
-0.280024044975,0.107635099403,1.19443629153
-0.280024044975,0.123802332841,1.19443629153
-0.279000605133,0.139458001527,1.19007083181
-0.279000605133,0.1555661465,1.19007083181
-0.280024044975,0.172304033153,1.19443629153
-0.274980577793,0.185076741496,1.17292349523
-0.274980577793,0.200952789542,1.17292349523
-0.274980577793,0.216828837588,1.17292349523
-0.286325909669,0.242305978837,1.22131675422
-0.314650394631,0.284442230456,1.34213421038
-0.314650394631,0.302608621781,1.34213421038
-0.315952698105,0.322102665703,1.34768915668
-0.314650394631,0.338941404429,1.34213421038
-0.314650394631,0.357107795753,1.34213421038
-0.314650394631,0.375274187078,1.34213421038
-0.314650394631,0.393440578402,1.34213421038
-0.315952698105,0.413310565831,1.34768915668
-0.315952698105,0.431552145857,1.34768915668
-0.315952698105,0.449793725882,1.34768915668
-0.315952698105,0.468035305908,1.34768915668
-0.315952698105,0.486276885933,1.34768915668
-0.314650394631,0.502438926347,1.34213421038
-0.314650394631,0.520605317672,1.34213421038
-0.314650394631,0.538771708996,1.34213421038
-0.313358782836,0.554651919111,1.3366248692
-0.313358782836,0.57274373902,1.3366248692
-0.313358782836,0.590835558929,1.3366248692
-0.313358782836,0.608927378838,1.3366248692
-0.312077731593,0.624455863146,1.33116057382
-0.312077731593,0.642473721354,1.33116057382
-0.313358782836,0.663202838564,1.3366248692
-0.313358782836,0.681294658473,1.3366248692
-0.313358782836,0.699386478381,1.3366248692
-0.313358782836,0.71747829829,1.3366248692
-0.313358782836,0.735570118199,1.3366248692
-0.312077731593,0.750580870605,1.33116057382
-0.312077731593,0.768598728813,1.33116057382
-0.312077731593,0.786616587022,1.33116057382
-0.312077731593,0.80463444523,1.33116057382
-0.312077731593,0.822652303439,1.33116057382
-0.312077731593,0.840670161647,1.33116057382
-0.310807111911,0.855191884796,1.32574077403
-0.145475472313,-0.243641674537,0.658328032718
-0.147563876857,-0.238100638177,0.667778802892
-0.14847737644,-0.230479967564,0.671912712022
-0.153875276115,-0.229433796708,0.696340119731
-0.156894999865,-0.21471583074,0.710005439142
-0.213759480336,-0.0175764068547,0.967337351972
-0.266880100567,-0.0055971294216,1.20772697132
-0.265893886254,0.0107102743887,1.20326400228
-0.265893886254,0.0269969948692,1.20326400228
-0.264914933912,0.0431243559334,1.19883389624
-0.264914933912,0.0593511129323,1.19883389624
-0.263943163625,0.0753006325279,1.19443629153
-0.262978496645,0.091133566608,1.19007083181
-0.262978496645,0.107241711581,1.19007083181
-0.262020855372,0.12290067567,1.1857371659
-0.261070163332,0.138446008708,1.18143494772
-0.262020855372,0.154999649374,1.1857371659
-0.262020855372,0.171049136226,1.1857371659
-0.258259034333,0.184412456988,1.16871359344
-0.258259034333,0.200231522116,1.16871359344
-0.258259034333,0.216050587244,1.16871359344
-0.269883132474,0.242305978837,1.22131675422
-0.295363594575,0.28327462048,1.3366248692
-0.295363594575,0.301366440389,1.3366248692
-0.296581033254,0.320775013105,1.34213421038
-0.295363594575,0.337550080206,1.3366248692
-0.296581033254,0.357107795753,1.34213421038
-0.295363594575,0.373733720024,1.3366248692
-0.295363594575,0.391825539933,1.3366248692
-0.296581033254,0.411606969726,1.34213421038
-0.296581033254,0.42977336105,1.34213421038
-0.296581033254,0.447939752375,1.34213421038
-0.296581033254,0.466106143699,1.34213421038
-0.296581033254,0.484272535023,1.34213421038
-0.296581033254,0.502438926347,1.34213421038
-0.295363594575,0.518468279294,1.3366248692
-0.295363594575,0.536560099203,1.3366248692
-0.29415610999,0.552384430312,1.33116057382
-0.29415610999,0.57040228852,1.33116057382
-0.292958457914,0.586024403156,1.32574077403
-0.29415610999,0.606438004937,1.33116057382
-0.292958457914,0.621913400708,1.32574077403
-0.29415610999,0.642473721354,1.33116057382
-0.29415610999,0.660491579563,1.33116057382
-0.29415610999,0.678509437771,1.33116057382
-0.29415610999,0.69652729598,1.33116057382
-0.29415610999,0.714545154188,1.33116057382
-0.292958457914,0.729580393364,1.32574077403
-0.292958457914,0.74752489214,1.32574077403
-0.29415610999,0.768598728813,1.33116057382
-0.292958457914,0.783413889692,1.32574077403
-0.292958457914,0.801358388468,1.32574077403
-0.292958457914,0.819302887244,1.32574077403
-0.291770518737,0.833852368931,1.32036492854
-0.291770518737,0.851724103216,1.32036492854
-0.135245112122,-0.241203359097,0.651739622053
-0.136612299737,-0.234730907961,0.658328032718
-0.138007411327,-0.228126260945,0.665051007666
-0.139431311215,-0.221385326232,0.671912712022
-0.141771692152,-0.215854024208,0.683190894006
-0.14388493604,-0.209686400261,0.693374513593
-0.200141488698,-0.0175243456812,0.964472106639
-0.249694156063,-0.00557644609176,1.20326400228
-0.248774846927,0.0106708419356,1.19883389624
-0.248774846927,0.0268975989345,1.19883389624
-0.247862282275,0.0429661656527,1.19443629153
-0.247862282275,0.0591333990903,1.19443629153
-0.246956388158,0.0750254216349,1.19007083181
-0.246956388158,0.091133566608,1.19007083181
-0.246057091702,0.106851188818,1.1857371659
-0.245164321093,0.122454754318,1.18143494772
-0.245164321093,0.138446008708,1.18143494772
-0.245164321093,0.154437263099,1.18143494772
-0.245164321093,0.17042851749,1.18143494772
-0.241657096783,0.183752923976,1.16453380424
-0.241657096783,0.199515413774,1.16453380424
-0.241657096783,0.215277903571,1.16453380424
-0.252493306455,0.24140053664,1.21675297198
-0.276234488387,0.282116557185,1.33116057382
-0.277368406314,0.301366440389,1.3366248692
-0.277368406314,0.319458260297,1.3366248692
-0.277368406314,0.337550080206,1.3366248692
-0.277368406314,0.355641900115,1.3366248692
-0.277368406314,0.373733720024,1.3366248692
-0.277368406314,0.391825539933,1.3366248692
-0.278511671877,0.411606969726,1.34213421038
-0.277368406314,0.42800917975,1.3366248692
-0.278511671877,0.447939752375,1.34213421038
-0.277368406314,0.464192819568,1.3366248692
-0.277368406314,0.482284639476,1.3366248692
-0.276234488387,0.498330855686,1.33116057382
-0.275109803918,0.514246408052,1.32574077403
-0.276234488387,0.534366572103,1.33116057382
-0.275109803918,0.550135405604,1.32574077403
-0.275109803918,0.56807990438,1.32574077403
-0.275109803918,0.586024403156,1.32574077403
-0.273994240583,0.601519823228,1.32036492854
-0.275109803918,0.621913400708,1.32574077403
-0.275109803918,0.639857899484,1.32574077403
-0.275109803918,0.65780239826,1.32574077403
-0.275109803918,0.675746897036,1.32574077403
-0.275109803918,0.693691395812,1.32574077403
-0.275109803918,0.711635894588,1.32574077403
-0.275109803918,0.729580393364,1.32574077403
-0.275109803918,0.74752489214,1.32574077403
-0.275109803918,0.765469390916,1.32574077403
-0.273994240583,0.780237166076,1.32036492854
-0.273994240583,0.798108900361,1.32036492854
-0.273994240583,0.815980634646,1.32036492854
-0.273994240583,0.833852368931,1.32036492854
-0.272887687874,0.84828433159,1.31503250481
-0.124723155415,-0.229170877055,0.642734329103
-0.126978951968,-0.224458714699,0.654359098209
-0.12958305733,-0.220023264159,0.667778802892
-0.131197428475,-0.213613064397,0.676098122202
-0.133132450352,-0.207477364304,0.68606984705
-0.135125405696,-0.201157964801,0.696340119731
-0.137178935789,-0.194646490728,0.706922551535
-0.139295844952,-0.187934049954,0.717831593932
-0.140848369881,-0.180204207153,0.725832201886
-0.18605446727,-0.0174211431141,0.958792237094
-0.232634759941,-0.00555591506324,1.19883389624
-0.232634759941,0.0106708419356,1.19883389624
-0.231781400925,0.0267989322152,1.19443629153
-0.231781400925,0.0429661656527,1.19443629153
-0.23093427967,0.0589172766618,1.19007083181
-0.230093328032,0.0747522151135,1.1857371659
-0.229258478854,0.0904722455368,1.18143494772
-0.229258478854,0.106463499927,1.18143494772
-0.229258478854,0.122454754318,1.18143494772
-0.228429665954,0.137945500118,1.17716383622
-0.228429665954,0.15387894309,1.17716383622
-0.227606824098,0.16920069345,1.17292349523
-0.224373894938,0.182447909971,1.15626328048
-0.225978797265,0.199515413774,1.16453380424
-0.225173486441,0.214510727058,1.1603838057
-0.23523296023,0.240501836113,1.21222317038
-0.259373218054,0.28327462048,1.3366248692
-0.257261149921,0.298912422739,1.32574077403
-0.257261149921,0.316856921515,1.32574077403
-0.258312866784,0.33617013181,1.33116057382
-0.258312866784,0.354187990019,1.33116057382
-0.258312866784,0.372205848227,1.33116057382
-0.258312866784,0.390223706436,1.33116057382
-0.258312866784,0.408241564644,1.33116057382
-0.258312866784,0.426259422852,1.33116057382
-0.258312866784,0.444277281061,1.33116057382
-0.257261149921,0.460412911724,1.32574077403
-0.258312866784,0.480312997478,1.33116057382
-0.257261149921,0.496301909276,1.32574077403
-0.257261149921,0.514246408052,1.32574077403
-0.25621796243,0.530032886088,1.32036492854
-0.257261149921,0.550135405604,1.32574077403
-0.25621796243,0.565776354658,1.32036492854
-0.25621796243,0.583648088943,1.32036492854
-0.25621796243,0.601519823228,1.32036492854
-0.25621796243,0.619391557512,1.32036492854
-0.257261149921,0.639857899484,1.32574077403
-0.257261149921,0.65780239826,1.32574077403
-0.257261149921,0.675746897036,1.32574077403
-0.25621796243,0.690878494652,1.32036492854
-0.25621796243,0.708750228937,1.32036492854
-0.257261149921,0.729580393364,1.32574077403
-0.257261149921,0.74752489214,1.32574077403
-0.25621796243,0.762365431792,1.32036492854
-0.25621796243,0.780237166076,1.32036492854
-0.25621796243,0.798108900361,1.32036492854
-0.255183200969,0.812685216537,1.31503250481
-0.254156763862,0.827144270511,1.30974297887
-0.254156763862,0.844872231921,1.30974297887
-0.116529960838,-0.230079184778,0.645281775629
-0.116993659567,-0.222225786361,0.647849495871
-0.119126804236,-0.217348808952,0.659661731711
-0.120345840325,-0.210552772041,0.666412113899
-0.122095014423,-0.204461771653,0.676098122202
-0.12337588187,-0.197359430994,0.683190894006
-0.126290623378,-0.192556262671,0.699331203003
-0.127939287814,-0.185480659701,0.708460641535
-0.130205652197,-0.179007130387,0.72101057825
-0.131958828217,-0.171526794646,0.730718747089
-0.134371179505,-0.164591072904,0.744077082673
-0.13687337405,-0.15739704391,0.757932923073
-0.138159745738,-0.148520922336,0.765056174479
-0.172132394111,-0.0173191489702,0.953178874485
-0.216494672956,-0.00555591506324,1.19883389624
-0.215700519574,0.0106316987776,1.19443629153
-0.214912171182,0.0267009867157,1.19007083181
-0.214129564361,0.0426532414092,1.1857371659
-0.214129564361,0.0587027282613,1.1857371659
-0.213352636616,0.0744809911462,1.18143494772
-0.212581326353,0.0901451712029,1.17716383622
-0.212581326353,0.106078614175,1.17716383622
-0.212581326353,0.122012057146,1.17716383622
-0.211815572867,0.137448597359,1.17292349523
-0.211815572867,0.153324645405,1.17292349523
-0.211055316324,0.16859339186,1.16871359344
-0.208806942766,0.182447909971,1.15626328048
-0.208068092551,0.197397495599,1.15217191569
-0.208068092551,0.212992661665,1.15217191569
-0.218100653056,0.239609802241,1.20772697132
-0.238441684276,0.279828606099,1.32036492854
-0.239412495925,0.298912422739,1.32574077403
-0.238441684276,0.315572074669,1.32036492854
-0.238441684276,0.333443808954,1.32036492854
-0.238441684276,0.351315543239,1.32036492854
-0.239412495925,0.370690417843,1.32574077403
-0.238441684276,0.387059011809,1.32036492854
-0.240391245181,0.408241564644,1.33116057382
-0.240391245181,0.426259422852,1.33116057382
-0.239412495925,0.442468412948,1.32574077403
-0.239412495925,0.460412911724,1.32574077403
-0.239412495925,0.4783574105,1.32574077403
-0.239412495925,0.496301909276,1.32574077403
-0.238441684276,0.512161151803,1.32036492854
-0.238441684276,0.530032886088,1.32036492854
-0.238441684276,0.547904620373,1.32036492854
-0.238441684276,0.565776354658,1.32036492854
-0.238441684276,0.583648088943,1.32036492854
-0.237478714065,0.599090526214,1.31503250481
-0.237478714065,0.616890083741,1.31503250481
-0.237478714065,0.634689641268,1.31503250481
-0.237478714065,0.652489198795,1.31503250481
-0.237478714065,0.670288756322,1.31503250481
-0.237478714065,0.688088313848,1.31503250481
-0.237478714065,0.705887871375,1.31503250481
-0.237478714065,0.723687428902,1.31503250481
-0.237478714065,0.741486986429,1.31503250481
-0.238441684276,0.762365431792,1.32036492854
-0.236523490667,0.773960386282,1.30974297887
-0.237478714065,0.79488565901,1.31503250481
-0.236523490667,0.809416309102,1.30974297887
-0.236523490667,0.827144270511,1.30974297887
-0.236523490667,0.844872231921,1.30974297887
-0.107629140592,-0.220907227597,0.644005533188
-0.108704119117,-0.214309637394,0.650437732818
-0.110694183945,-0.209267896885,0.6623454072
-0.111831583865,-0.202360895215,0.669151109061
-0.113227702526,-0.195716858744,0.677504870297
-0.115388487727,-0.190106492791,0.690434060458
-0.11687541875,-0.183090499709,0.699331203003
-0.118918647728,-0.17666006357,0.71155698833
-0.120765986503,-0.169623524129,0.722610652662
-0.122948780528,-0.162731751724,0.735671533967
-0.12492449314,-0.155229093577,0.747493330991
-0.12696473979,-0.147481371027,0.759701271375
-0.128767317247,-0.139146342498,0.770487103632
-0.130621815915,-0.130571232873,0.781583609621
-0.132530511871,-0.121745517682,0.793004408394
-0.134164227732,-0.11238029895,0.80277984698
-0.158834640746,-0.0172685984437,0.95039676931
-0.199619638224,-0.00553553466001,1.19443629153
-0.198165800691,0.0105542677048,1.1857371659
-0.198165800691,0.026603754557,1.1857371659
-0.197446794377,0.0424984823651,1.18143494772
-0.197446794377,0.0584897367556,1.18143494772
-0.196732986751,0.0742117282311,1.17716383622
-0.196732986751,0.0901451712029,1.17716383622
-0.196732986751,0.106078614175,1.17716383622
-0.195320743654,0.121136196477,1.16871359344
-0.194622198228,0.136465454584,1.16453380424
-0.195320743654,0.152774326732,1.16871359344
-0.195320743654,0.16859339186,1.16871359344
-0.192556223059,0.181802329534,1.15217191569
-0.191877277398,0.196701479802,1.14810940288
-0.192556223059,0.212992661665,1.15217191569
-0.20035458597,0.23784543992,1.19883389624
-0.220665406123,0.279828606099,1.32036492854
-0.220665406123,0.297700340384,1.32036492854
-0.220665406123,0.315572074669,1.32036492854
-0.220665406123,0.333443808954,1.32036492854
-0.220665406123,0.351315543239,1.32036492854
-0.220665406123,0.369187277524,1.32036492854
-0.220665406123,0.387059011809,1.32036492854
-0.221563841928,0.406579415395,1.32574077403
-0.221563841928,0.424523914172,1.32574077403
-0.221563841928,0.442468412948,1.32574077403
-0.220665406123,0.458545948948,1.32036492854
-0.220665406123,0.476417683233,1.32036492854
-0.220665406123,0.494289417518,1.32036492854
-0.220665406123,0.512161151803,1.32036492854
-0.21977422716,0.527892296107,1.31503250481
-0.21977422716,0.545691853633,1.31503250481
-0.218890217472,0.561224849365,1.30974297887
-0.218890217472,0.578952810775,1.30974297887
-0.218013290892,0.594290326257,1.30449583515
-0.218890217472,0.614408733594,1.30974297887
-0.21977422716,0.634689641268,1.31503250481
-0.21977422716,0.652489198795,1.31503250481
-0.218890217472,0.667592617824,1.30974297887
-0.218890217472,0.685320579233,1.30974297887
-0.218890217472,0.703048540643,1.30974297887
-0.218890217472,0.720776502053,1.30974297887
-0.218890217472,0.738504463463,1.30974297887
-0.218013290892,0.753202776852,1.30449583515
-0.218890217472,0.773960386282,1.30974297887
-0.218013290892,0.788516654762,1.30449583515
-0.218013290892,0.806173593717,1.30449583515
-0.218013290892,0.823830532672,1.30449583515
-0.218013290892,0.841487471627,1.30449583515
-0.0983750933768,-0.219604223665,0.640206917129
-0.0991549032561,-0.212610825563,0.645281775629
-0.100752209353,-0.207160935476,0.655676748349
-0.101776924831,-0.200302753336,0.6623454072
-0.103460542409,-0.194502761059,0.673302079079
-0.104760268972,-0.187718273546,0.681760459221
-0.106318503738,-0.181145255822,0.691901162943
-0.107691505016,-0.173998436177,0.70083640138
-0.109100432227,-0.166664612948,0.710005439142
-0.111284330408,-0.160198176839,0.724217844675
-0.113557446057,-0.153467571334,0.739010860997
-0.114597800385,-0.144779075615,0.745781294596
-0.116736763553,-0.137198471985,0.759701271375
-0.118674943569,-0.129022751691,0.77231458853
-0.120388204896,-0.120280859397,0.783464176448
-0.12245060201,-0.111555208137,0.796885875506
-0.124275450916,-0.102270732434,0.808761654751
-0.126155513131,-0.0927053421692,0.820996752004
-0.128093332979,-0.0828460923232,0.83360772525
-0.129418628405,-0.0723032485822,0.842232502822
-0.131458801903,-0.0618633395838,0.855509574702
-0.144771638206,-0.0171187020367,0.942147051682
-0.183538756874,-0.00553553466001,1.19443629153
-0.181540952138,0.010515973584,1.18143494772
-0.181540952138,0.0265072279745,1.18143494772
-0.181540952138,0.0424984823651,1.18143494772
-0.181540952138,0.0584897367556,1.18143494772
-0.180233070403,0.0739444051761,1.17292349523
-0.180233070403,0.0898204532218,1.17292349523
-0.179586170984,0.105317131349,1.16871359344
-0.17894389871,0.120702964786,1.16453380424
-0.17894389871,0.136465454584,1.16453380424
-0.17894389871,0.152227944381,1.16453380424
-0.17894389871,0.167990434179,1.16453380424
-0.176420102147,0.181161301678,1.14810940288
-0.176420102147,0.196701479802,1.14810940288
-0.176420102147,0.212241657926,1.14810940288
-0.183538756874,0.236972966904,1.19443629153
-0.201256944277,0.277577466809,1.30974297887
-0.202069740256,0.296498048257,1.31503250481
-0.202069740256,0.314297605784,1.31503250481
-0.202069740256,0.332097163311,1.31503250481
-0.202069740256,0.349896720838,1.31503250481
-0.202069740256,0.367696278365,1.31503250481
-0.202069740256,0.385495835892,1.31503250481
-0.202889127969,0.404930746094,1.32036492854
-0.202889127969,0.422802480379,1.32036492854
-0.202889127969,0.440674214663,1.32036492854
-0.202889127969,0.458545948948,1.32036492854
-0.202889127969,0.476417683233,1.32036492854
-0.202889127969,0.494289417518,1.32036492854
-0.202069740256,0.51009273858,1.31503250481
-0.201256944277,0.525768926545,1.30974297887
-0.201256944277,0.543496887955,1.30974297887
-0.200450660808,0.558976448347,1.30449583515
-0.200450660808,0.576633387302,1.30449583515
-0.200450660808,0.594290326257,1.30449583515
-0.200450660808,0.611947265212,1.30449583515
-0.201256944277,0.632136695004,1.30974297887
-0.201256944277,0.649864656414,1.30974297887
-0.200450660808,0.664918082077,1.30449583515
-0.201256944277,0.685320579233,1.30974297887
-0.201256944277,0.703048540643,1.30974297887
-0.200450660808,0.717888898942,1.30449583515
-0.201256944277,0.738504463463,1.30974297887
-0.200450660808,0.753202776852,1.30449583515
-0.200450660808,0.770859715807,1.30449583515
-0.200450660808,0.788516654762,1.30449583515
-0.19965081189,0.802956756845,1.29929056629
-0.200450660808,0.823830532672,1.30449583515
-0.19965081189,0.838129723436,1.29929056629
-0.0895797617978,-0.210524813195,0.638950650386
-0.0908273643449,-0.204687916645,0.647849495871
-0.092110209144,-0.198686139556,0.656999715768
-0.0936214182747,-0.192907203133,0.667778802892
-0.0945913659688,-0.185773452479,0.674697203851
-0.0955816219974,-0.178490338518,0.681760459221
-0.0976256648587,-0.172882132894,0.696340119731
-0.0986808250018,-0.16522353405,0.703866320362
-0.100417358434,-0.158436249624,0.716252590917
-0.10221610385,-0.151405808098,0.729082604422
-0.103608028029,-0.143464726321,0.739010860997
-0.105280625759,-0.135616425158,0.75094109374
-0.106757866206,-0.127212374653,0.761477890511
-0.108277152284,-0.118569125719,0.77231458853
-0.110105228957,-0.10994084719,0.785353814759
-0.111722003671,-0.100768998723,0.796885875506
-0.113386967116,-0.0913237789966,0.808761654751
-0.115102306316,-0.0815927811768,0.820996752004
-0.116870342671,-0.0715628361253,0.83360772525
-0.119002953925,-0.0613795417106,0.848819122561
-0.12089383734,-0.050683119907,0.862306333994
-0.122516091507,-0.0395349027568,0.873877478348
-0.129833383771,-0.0293613568628,0.926069944122
-0.131706283264,-0.0170693131855,0.939428880617
-0.16623827335,-0.00549521914732,1.1857371659
-0.165036307549,0.0104779563442,1.17716383622
-0.165036307549,0.0264113993159,1.17716383622
-0.165036307549,0.0423448422876,1.17716383622
-0.164441819171,0.0580683571304,1.17292349523
-0.163851598315,0.0736790010934,1.16871359344
-0.163851598315,0.0894980662212,1.16871359344
-0.163265599191,0.104940474989,1.16453380424
-0.163265599191,0.120702964786,1.16453380424
-0.162683776667,0.135979138571,1.1603838057
-0.163265599191,0.152227944381,1.16453380424
-0.162683776667,0.167391773966,1.1603838057
-0.160397372077,0.180524778418,1.14407543793
-0.160397372077,0.196010355009,1.14407543793
-0.160962926895,0.212241657926,1.14810940288
-0.166845845718,0.236106871366,1.19007083181
-0.183623671082,0.277577466809,1.30974297887
-0.182888030724,0.294122364022,1.30449583515
-0.184365253351,0.314297605784,1.31503250481
-0.183623671082,0.330761351038,1.30974297887
-0.184365253351,0.349896720838,1.31503250481
-0.183623671082,0.366217273858,1.30974297887
-0.183623671082,0.383945235267,1.30974297887
-0.184365253351,0.403295393418,1.31503250481
-0.184365253351,0.421094950945,1.31503250481
-0.184365253351,0.438894508472,1.31503250481
-0.183623671082,0.454857080906,1.30974297887
-0.182888030724,0.470691753572,1.30449583515
-0.182888030724,0.488348692527,1.30449583515
-0.182888030724,0.506005631482,1.30449583515
-0.182888030724,0.523662570437,1.30449583515
-0.182888030724,0.541319509392,1.30449583515
-0.182888030724,0.558976448347,1.30449583515
-0.182888030724,0.576633387302,1.30449583515
-0.182158261149,0.5919189573,1.29929056629
-0.182158261149,0.609505440595,1.29929056629
-0.182888030724,0.629604204167,1.30449583515
-0.182888030724,0.647261143122,1.30449583515
-0.182888030724,0.664918082077,1.30449583515
-0.182888030724,0.682575021032,1.30449583515
-0.182888030724,0.700231959987,1.30449583515
-0.182888030724,0.717888898942,1.30449583515
-0.182158261149,0.732610823663,1.29929056629
-0.182888030724,0.753202776852,1.30449583515
-0.182158261149,0.767783790254,1.29929056629
-0.182158261149,0.785370273549,1.29929056629
-0.182158261149,0.802956756845,1.29929056629
-0.180716055462,0.814046734741,1.28900366395
-0.180716055462,0.831493980178,1.28900366395
-0.0803468173587,-0.208885245859,0.633974502443
-0.081456994803,-0.203071780744,0.642734329103
-0.0825982814401,-0.197095411754,0.651739622053
-0.0837720034554,-0.190949194294,0.661000845524
-0.0848049278606,-0.184246371633,0.669151109061
-0.0856853582153,-0.17700789342,0.676098122202
-0.0871327134624,-0.170691952441,0.687518441672
-0.0886298048651,-0.164158973784,0.699331203003
-0.0897868251041,-0.156712657621,0.708460641535
-0.0911754529891,-0.149398708089,0.71941757426
-0.0926077081756,-0.1418549721,0.730718747089
-0.0936586100007,-0.133461881307,0.739010860997
-0.0949516101937,-0.12516344508,0.74921324587
-0.0962808110787,-0.116632673903,0.759701271375
-0.097879360998,-0.108115499746,0.77231458853
-0.0992924050568,-0.0990717780582,0.783464176448
-0.100993405332,-0.0899827893085,0.796885875506
-0.102498483315,-0.0803768255589,0.808761654751
-0.104576450186,-0.0708374341593,0.825157799066
-0.105918513718,-0.0604342974106,0.835747316957
-0.107575170213,-0.0498903923955,0.848819122561
-0.109574652125,-0.0391150006399,0.864595983328
-0.118375560017,-0.0169713855233,0.934039321412
-0.14972926766,-0.00547528080655,1.18143494772
-0.149187967948,0.0104779563442,1.17716383622
-0.149187967948,0.0264113993159,1.17716383622
-0.148117025645,0.0420408708377,1.16871359344
-0.14865056794,0.0580683571304,1.17292349523
-0.147587299673,0.0734154953938,1.16453380424
-0.147061349224,0.0888601854792,1.1603838057
-0.147061349224,0.104566503176,1.1603838057
-0.147061349224,0.120272820874,1.1603838057
-0.147061349224,0.135979138571,1.1603838057
-0.147061349224,0.151685456268,1.1603838057
-0.146539134077,0.16679736544,1.15626328048
-0.144486841814,0.179892712437,1.14006972099
-0.143982719446,0.194642573651,1.13609195637
-0.143982719446,0.210020090221,1.13609195637
-0.151376994173,0.236972966904,1.19443629153
-0.16532540064,0.276465425067,1.30449583515
-0.16532540064,0.294122364022,1.30449583515
-0.16532540064,0.311779302977,1.30449583515
-0.16532540064,0.329436241932,1.30449583515
-0.16532540064,0.347093180887,1.30449583515
-0.16532540064,0.364750119842,1.30449583515
-0.16532540064,0.382407058797,1.30449583515
-0.165990397887,0.401673196677,1.30974297887
-0.165990397887,0.419401158087,1.30974297887
-0.165990397887,0.437129119497,1.30974297887
-0.165990397887,0.454857080906,1.30974297887
-0.16532540064,0.470691753572,1.30449583515
-0.16532540064,0.488348692527,1.30449583515
-0.16532540064,0.506005631482,1.30449583515
-0.16532540064,0.523662570437,1.30449583515
-0.164665710409,0.539159507414,1.29929056629
-0.164665710409,0.556745990709,1.29929056629
-0.164665710409,0.574332474004,1.29929056629
-0.164665710409,0.5919189573,1.29929056629
-0.164665710409,0.609505440595,1.29929056629
-0.164665710409,0.627091923891,1.29929056629
-0.164665710409,0.644678407186,1.29929056629
-0.164665710409,0.662264890482,1.29929056629
-0.164011263915,0.677149376219,1.29412667301
-0.164665710409,0.697437857072,1.29929056629
-0.164011263915,0.712182551565,1.29412667301
-0.164665710409,0.732610823663,1.29929056629
-0.164011263915,0.747215726911,1.29412667301
-0.164011263915,0.764732314584,1.29412667301
-0.164011263915,0.782248902257,1.29412667301
-0.163361998886,0.796599489304,1.28900366395
-0.163361998886,0.814046734741,1.28900366395
-0.162717854028,0.82821535617,1.28392105546
-0.0713945048176,-0.207672232282,0.630292961051
-0.0719516099359,-0.20069486822,0.635211258833
-0.07294775443,-0.194756512325,0.644005533188
-0.0739718686893,-0.188651419155,0.653046733356
-0.0751780694602,-0.182744191686,0.663695450052
-0.0762662309418,-0.176275866977,0.673302079079
-0.077386356167,-0.169617541174,0.683190894006
-0.0782068036637,-0.162070484405,0.690434060458
-0.079214600237,-0.154693210822,0.699331203003
-0.0804236916446,-0.147444125831,0.710005439142
-0.0814898224243,-0.139661067041,0.71941757426
-0.0827699281653,-0.131964364585,0.730718747089
-0.0840908935622,-0.124021991321,0.742380641706
-0.085060552549,-0.115287772979,0.75094109374
-0.086456260466,-0.106848354884,0.763262838643
-0.0874815697124,-0.097661873773,0.77231458853
-0.0891736261192,-0.0888950176524,0.78725259035
-0.0904862555879,-0.07939087457,0.798840892793
-0.0918381060122,-0.0696027506824,0.810775450067
-0.0934672225475,-0.0596685515199,0.825157799066
-0.0954013073221,-0.0495032556845,0.842232502822
-0.0966512895516,-0.038602501838,0.853267735894
-0.105800443529,-0.0169713855233,0.934039321412
-0.105800443529,-0.00432874241527,0.934039321412
-0.132859316708,0.0104402129933,1.17292349523
-0.132382452975,0.0262218057099,1.16871359344
-0.132382452975,0.0420408708377,1.16871359344
-0.132382452975,0.0578599359656,1.16871359344
-0.131438921781,0.0731538677819,1.1603838057
-0.131438921781,0.0888601854792,1.1603838057
-0.131438921781,0.104566503176,1.1603838057
-0.130508745089,0.119421665272,1.15217191569
-0.130048576392,0.134540767306,1.14810940288
-0.130508745089,0.150611997403,1.15217191569
-0.130508745089,0.166207163468,1.15217191569
-0.128687336944,0.179265057081,1.13609195637
-0.128687336944,0.194642573651,1.13609195637
-0.128687336944,0.210020090221,1.13609195637
-0.134310746009,0.235247083635,1.1857371659
-0.147173159668,0.275362257982,1.29929056629
-0.146588235472,0.291784447413,1.29412667301
-0.147173159668,0.310535224573,1.29929056629
-0.147173159668,0.328121707869,1.29929056629
-0.147173159668,0.345708191164,1.29929056629
-0.147762770556,0.364750119842,1.30449583515
-0.147173159668,0.380881157755,1.29929056629
-0.147762770556,0.400063997752,1.30449583515
-0.147762770556,0.417720936707,1.30449583515
-0.147762770556,0.435377875662,1.30449583515
-0.147762770556,0.453034814617,1.30449583515
-0.147173159668,0.468813574232,1.29929056629
-0.147173159668,0.486400057527,1.29929056629
-0.147173159668,0.503986540823,1.29929056629
-0.147173159668,0.521573024118,1.29929056629
-0.147173159668,0.539159507414,1.29929056629
-0.146588235472,0.554533262508,1.29412667301
-0.146588235472,0.572049850181,1.29412667301
-0.146588235472,0.589566437854,1.29412667301
-0.146588235472,0.607083025527,1.29412667301
-0.147173159668,0.627091923891,1.29929056629
-0.146588235472,0.642116200873,1.29412667301
-0.146588235472,0.659632788546,1.29412667301
-0.14600794231,0.674468771247,1.28900366395
-0.146588235472,0.694665963892,1.29412667301
-0.146588235472,0.712182551565,1.29412667301
-0.14600794231,0.726810507557,1.28900366395
-0.14600794231,0.744257752994,1.28900366395
-0.14600794231,0.76170499843,1.28900366395
-0.14600794231,0.779152243867,1.28900366395
-0.1454322254,0.793458456088,1.28392105546
-0.1454322254,0.810836906129,1.28392105546
-0.1454322254,0.82821535617,1.28392105546
-0.0627872359077,-0.198756201902,0.629075264013
-0.0635235837773,-0.19247247257,0.636452849979
-0.0645326741645,-0.186778430393,0.646563086439
-0.0654422976596,-0.180536294734,0.655676748349
-0.0663779310644,-0.174115670518,0.665051007666
-0.0673407061569,-0.167508791112,0.674697203851
-0.0680456810726,-0.160034468463,0.681760459221
-0.06905781236,-0.153049673756,0.691901162943
-0.0704042290974,-0.146485888899,0.705391125549
-0.0711751728809,-0.138437608362,0.713115333457
-0.0719631876474,-0.130211115011,0.72101057825
-0.0732609596813,-0.122624121476,0.734013161864
-0.0742654273597,-0.11423397987,0.744077082673
-0.0751237676087,-0.105366444712,0.752676929615
-0.076359324961,-0.0967440219968,0.765056174479
-0.0774511846289,-0.0876239104955,0.775995689476
-0.0787651552853,-0.0784288190132,0.789160569657
-0.0801244787671,-0.0689163510533,0.80277984698
-0.081124508071,-0.0587748875467,0.812799299011
-0.0825672321186,-0.0486228862486,0.827254179817
-0.0840622002946,-0.0381032592356,0.842232502822
-0.0856123027357,-0.0271956695128,0.857763224764
-0.0929586723322,-0.0043163608063,0.931367665644
-0.116647880305,0.0104027405821,1.16871359344
-0.116230700636,0.0261280260013,1.16453380424
-0.116230700636,0.0418905157988,1.16453380424
-0.115816494337,0.0574475500846,1.1603838057
-0.115816494337,0.0731538677819,1.1603838057
-0.115405229733,0.0885446427819,1.15626328048
-0.114996875596,0.103826499206,1.15217191569
-0.114996875596,0.119421665272,1.15217191569
-0.114591401141,0.134540767306,1.14810940288
-0.114591401141,0.15008094543,1.14810940288
-0.114591401141,0.165621123554,1.14810940288
-0.113391954442,0.179265057081,1.13609195637
-0.112997699386,0.193965816477,1.13214185251
-0.113391954442,0.210020090221,1.13609195637
-0.117917583183,0.234393535052,1.18143494772
-0.129680608927,0.275362257982,1.29929056629
-0.129165207029,0.291784447413,1.29412667301
-0.129680608927,0.310535224573,1.29929056629
-0.129680608927,0.328121707869,1.29929056629
-0.129165207029,0.361850798105,1.29412667301
-0.129680608927,0.380881157755,1.29929056629
-0.129680608927,0.39846764105,1.29929056629
-0.129680608927,0.416054124346,1.29929056629
-0.129680608927,0.433640607641,1.29929056629
-0.130200140472,0.453034814617,1.30449583515
-0.129680608927,0.468813574232,1.29929056629
-0.129680608927,0.486400057527,1.29929056629
-0.129680608927,0.503986540823,1.29929056629
-0.129165207029,0.519500087162,1.29412667301
-0.128653885734,0.534890807753,1.28900366395
-0.128653885734,0.552338053189,1.28900366395
-0.128653885734,0.569785298626,1.28900366395
-0.128653885734,0.587232544063,1.28900366395
-0.128653885734,0.6046797895,1.28900366395
-0.128653885734,0.622127034936,1.28900366395
-0.128653885734,0.639574280373,1.28900366395
-0.128653885734,0.65702152581,1.28900366395
-0.128653885734,0.674468771247,1.28900366395
-0.128653885734,0.691916016683,1.28900366395
-0.128146596771,0.706566205885,1.28392105546
-0.128653885734,0.726810507557,1.28900366395
-0.128146596771,0.741323105967,1.28392105546
-0.128146596771,0.758701556007,1.28392105546
-0.128146596771,0.776080006048,1.28392105546
-0.128146596771,0.793458456088,1.28392105546
-0.12764329263,0.807652291141,1.27887837153
-0.12764329263,0.824962486182,1.27887837153
-0.0539013581122,-0.197232029033,0.624251165742
-0.0544230407145,-0.190609633787,0.630292961051
-0.0551705943257,-0.184579358273,0.638950650386
-0.0559389707158,-0.178381112072,0.647849495871
-0.0567290521871,-0.172007777934,0.656999715768
-0.0575417716023,-0.165451830754,0.666412113899
-0.0582571528863,-0.158376460429,0.674697203851
-0.0592391308903,-0.151759777102,0.68606984705
-0.0599976172414,-0.144297715811,0.694854152408
-0.0609074387906,-0.136938102154,0.705391125549
-0.0615743903631,-0.128785270982,0.713115333457
-0.0625330436519,-0.120987717352,0.724217844675
-0.0636658613143,-0.113199276756,0.737337416632
-0.0642478020022,-0.104162561264,0.744077082673
-0.0651409375356,-0.0953991429349,0.754420809017
-0.0662148308965,-0.0865920957072,0.76685795728
-0.0668445327855,-0.0769371056066,0.774150763102
-0.0683061101004,-0.067911765526,0.79107781976
-0.0693165289742,-0.0580503640793,0.80277984698
-0.0703572899481,-0.0478928323466,0.81483327706
-0.0716117159911,-0.0375209531957,0.829361239751
-0.073483376259,-0.0269824318322,0.851037615728
-0.0797353180545,-0.00427963734869,0.923443619782
-0.100552401118,0.0103655362038,1.16453380424
-0.100552401118,0.0261280260013,1.16453380424
-0.100194066894,0.0417412323873,1.1603838057
-0.0998382775606,0.0572435537187,1.15626328048
-0.0998382775606,0.0728940982503,1.15626328048
-0.0994850061039,0.0882313331405,1.15217191569
-0.0991342258897,0.103460411058,1.14810940288
-0.0991342258897,0.119000589182,1.14810940288
-0.0987859106585,0.134068048646,1.14407543793
-0.0991342258897,0.15008094543,1.14810940288
-0.0987859106585,0.165039201827,1.14407543793
-0.0977554977463,0.178641766343,1.13214185251
-0.0974167871122,0.193293749062,1.12821912188
-0.0974167871122,0.20856470327,1.12821912188
-0.102011740944,0.234393535052,1.18143494772
-0.111742178586,0.27426785974,1.29412667301
-0.111742178586,0.379367385778,1.29412667301
-0.112188058187,0.39846764105,1.29929056629
-0.111742178586,0.414400561124,1.29412667301
-0.112188058187,0.433640607641,1.29929056629
-0.111742178586,0.44943373647,1.29412667301
-0.111742178586,0.466950324143,1.29412667301
-0.111742178586,0.484466911816,1.29412667301
-0.111742178586,0.501983499489,1.29412667301
-0.110860968142,0.515403255438,1.28392105546
-0.110860968142,0.532781705479,1.28392105546
-0.110860968142,0.55016015552,1.28392105546
-0.110860968142,0.56753860556,1.28392105546
-0.110860968142,0.584917055601,1.28392105546
-0.110860968142,0.602295505642,1.28392105546
-0.110860968142,0.619673955682,1.28392105546
-0.110860968142,0.637052405723,1.28392105546
-0.110860968142,0.654430855763,1.28392105546
-0.110860968142,0.671809305804,1.28392105546
-0.110860968142,0.689187755845,1.28392105546
-0.110860968142,0.706566205885,1.28392105546
-0.110860968142,0.723944655926,1.28392105546
-0.110860968142,0.741323105967,1.28392105546
-0.110860968142,0.758701556007,1.28392105546
-0.110860968142,0.776080006048,1.28392105546
-0.110425554438,0.7903420961,1.27887837153
-0.109993547585,0.804492593854,1.27387514358
-0.109564907754,0.818532803922,1.26891091032
-0.0457601533798,-0.189874555816,0.627862262971
-0.0461158409505,-0.182785969847,0.632742552624
-0.0467517828557,-0.176624045799,0.641468133598
-0.0473110028297,-0.169950312331,0.649141034418
-0.0480777772485,-0.163775896197,0.659661731711
-0.0485697617848,-0.156431642497,0.666412113899
-0.0492757020073,-0.149554015186,0.676098122202
-0.0502140670524,-0.143076433858,0.688973166477
-0.0508597539854,-0.135470732079,0.69783245625
-0.0516343623947,-0.127944655541,0.708460641535
-0.0523173405641,-0.119920831324,0.717831593932
-0.0529004446439,-0.111432945686,0.725832201886
-0.0537389731278,-0.103219082566,0.737337416632
-0.0544791612648,-0.0945231391736,0.747493330991
-0.0552400245354,-0.0855842983583,0.757932923073
-0.0560224414642,-0.0763922389598,0.768668246869
-0.0568273410645,-0.0669360466623,0.779712049111
-0.0577961210588,-0.0573434856355,0.793004408394
-0.0586531838242,-0.0473009938492,0.804763926831
-0.0596857826296,-0.0370491228664,0.818931926168
-0.0609113298667,-0.0264976478031,0.835747316957
-0.0612256211752,-0.0152637853119,0.840059620076
-0.0669232658277,-0.00425550024341,0.91823540842
-0.0845716394502,0.0103285969926,1.1603838057
-0.0845716394502,0.0260349146899,1.1603838057
-0.0839731366115,0.0414458349439,1.15217191569
-0.0839731366115,0.0570410010094,1.15217191569
-0.0836770506383,0.07238005481,1.14810940288
-0.0836770506383,0.087920232934,1.14810940288
-0.0833830453038,0.103096895464,1.14407543793
-0.0833830453038,0.118582472055,1.14407543793
-0.0830910987534,0.133598640216,1.14006972099
-0.0833830453038,0.149553625236,1.14407543793
-0.0830910987534,0.16446135503,1.14006972099
-0.0819434738648,0.177408097873,1.12432348094
-0.0819434738648,0.192626322826,1.12432348094
-0.0819434738648,0.207844547778,1.12432348094
-0.085485563013,0.232704885633,1.17292349523
-0.0943191501425,0.27426785974,1.29412667301
-0.0943191501425,0.291784447413,1.29412667301
-0.0928431686289,0.304460845058,1.27387514358
-0.093945772581,0.377865598822,1.28900366395
-0.093945772581,0.395312844258,1.28900366395
-0.093945772581,0.412760089695,1.28900366395
-0.0943191501425,0.431917148797,1.29412667301
-0.0943191501425,0.44943373647,1.29412667301
-0.093945772581,0.465101826005,1.28900366395
-0.093945772581,0.482549071442,1.28900366395
-0.0935753395138,0.498024805398,1.28392105546
-0.0935753395138,0.515403255438,1.28392105546
-0.0935753395138,0.532781705479,1.28392105546
-0.0935753395138,0.55016015552,1.28392105546
-0.0935753395138,0.56753860556,1.28392105546
-0.0932078162468,0.582619755604,1.27887837153
-0.0932078162468,0.599929950645,1.27887837153
-0.0935753395138,0.619673955682,1.28392105546
-0.0935753395138,0.637052405723,1.28392105546
-0.0935753395138,0.654430855763,1.28392105546
-0.0932078162468,0.66917073081,1.27887837153
-0.0935753395138,0.689187755845,1.28392105546
-0.0932078162468,0.703791120893,1.27887837153
-0.0932078162468,0.721101315934,1.27887837153
-0.0932078162468,0.738411510976,1.27887837153
-0.0928431686289,0.752765171565,1.27387514358
-0.0932078162468,0.773031901058,1.27887837153
-0.0928431686289,0.787250119758,1.27387514358
-0.0928431686289,0.804492593854,1.27387514358
-0.0924813630412,0.818532803922,1.26891091032
-0.0368804623757,-0.187702950406,0.620681368824
-0.0373071461941,-0.181376157162,0.627862262971
-0.0377438185013,-0.174901256346,0.635211258833
-0.0381908341909,-0.168272985661,0.642734329103
-0.0388035901976,-0.162133573728,0.653046733356
-0.0394363296598,-0.155793940722,0.663695450052
-0.0398423785109,-0.148322131052,0.670529067108
-0.0403408125404,-0.140988208695,0.6789174846
-0.0409383142792,-0.133750871588,0.688973166477
-0.0414647272176,-0.12602525533,0.69783245625
-0.0422802295259,-0.118872596715,0.71155698833
-0.042747300165,-0.110448143896,0.71941757426
-0.0434188081243,-0.10229254204,0.730718747089
-0.0439115198607,-0.0934505012536,0.739010860997
-0.0446204061298,-0.0847947947104,0.75094109374
-0.0451409298927,-0.0755010777372,0.759701271375
-0.0457818166676,-0.0661441115092,0.770487103632
-0.0464411634633,-0.0565176284228,0.781583609621
-0.0470053029354,-0.0464965760009,0.79107781976
-0.047818522056,-0.0364081514603,0.804763926831
-0.048906376222,-0.0260957731694,0.823072016517
-0.0494059170356,-0.0151078775485,0.83147906068
-0.0542549227367,-0.00423163387716,0.913085616078
-0.0687043732162,0.010291920124,1.15626328048
-0.068461267119,0.0258506688784,1.15217191569
-0.068461267119,0.0414458349439,1.15217191569
-0.0682198753869,0.0568398766859,1.14810940288
-0.0682198753869,0.07238005481,1.14810940288
-0.0682198753869,0.087920232934,1.14810940288
-0.0679801799492,0.103096895464,1.14407543793
-0.0677421629883,0.11816728281,1.14006972099
-0.0677421629883,0.133598640216,1.14006972099
-0.0675058069354,0.14851002394,1.13609195637
-0.0675058069354,0.16388754051,1.13609195637
-0.0668065321756,0.177408097873,1.12432348094
-0.0665766488896,0.191963489857,1.12045465004
-0.0665766488896,0.20712934844,1.12045465004
-0.0696943117813,0.232704885633,1.17292349523
-0.0768961216993,0.27426785974,1.29412667301
-0.0759900780553,0.288346439902,1.27887837153
-0.0762897108852,0.393754105154,1.28392105546
-0.0762897108852,0.411132555195,1.28392105546
-0.0762897108852,0.428511005235,1.28392105546
-0.0762897108852,0.445889455276,1.28392105546
-0.0762897108852,0.463267905317,1.28392105546
-0.0762897108852,0.480646355357,1.28392105546
-0.0762897108852,0.498024805398,1.28392105546
-0.0759900780553,0.513378975439,1.27887837153
-0.0759900780553,0.53068917048,1.27887837153
-0.0759900780553,0.547999365521,1.27887837153
-0.0756927896726,0.563097956504,1.27387514358
-0.0759900780553,0.582619755604,1.27887837153
-0.0756927896726,0.597582904697,1.27387514358
-0.0759900780553,0.617240145687,1.27887837153
-0.0759900780553,0.634550340728,1.27887837153
-0.0756927896726,0.649310326987,1.27387514358
-0.0756927896726,0.666552801083,1.27387514358
-0.0759900780553,0.686480925852,1.27887837153
-0.0759900780553,0.703791120893,1.27887837153
-0.0753978183284,0.715481118148,1.26891091032
-0.0756927896726,0.735522697469,1.27387514358
-0.0753978183284,0.749831680072,1.26891091032
-0.0753978183284,0.767006961035,1.26891091032
-0.0753978183284,0.784182241997,1.26891091032
-0.0753978183284,0.80135752296,1.26891091032
-0.0753978183284,0.818532803922,1.26891091032
-0.0277312239691,-0.182485217522,0.603427779673
-0.0284698641248,-0.178960618037,0.619500492135
-0.0288541390084,-0.172877758508,0.627862262971
-0.0293062116592,-0.166954775912,0.637699304287
-0.0296546729302,-0.16020574792,0.645281775629
-0.0301323859662,-0.153911653993,0.655676748349
-0.0303770610312,-0.146214472786,0.661000845524
-0.0310064930744,-0.140111799063,0.674697203851
-0.0313968304635,-0.132628354746,0.683190894006
-0.0317971209819,-0.12495409169,0.691901162943
-0.0322077502347,-0.117081617173,0.70083640138
-0.0327004272506,-0.109241352239,0.71155698833
-0.0331348779474,-0.100933505785,0.72101057825
-0.033581028114,-0.0924019345246,0.730718747089
-0.0341169640163,-0.0838281652651,0.742380641706
-0.0345901418773,-0.0748029804807,0.752676929615
-0.0349946002499,-0.0653706963612,0.761477890511
-0.0354926132847,-0.0558473698817,0.77231458853
-0.036005005538,-0.0460490747109,0.783464176448
-0.0366218152958,-0.0360517422373,0.796885875506
-0.0373531351425,-0.02577007323,0.812799299011
-0.0378252297983,-0.0149551225367,0.823072016517
-0.0419619092382,-0.00423163387716,0.913085616078
-0.0527627001355,0.0102193423137,1.14810940288
-0.0527627001355,0.0257595204378,1.14810940288
-0.0527627001355,0.0412996985619,1.14810940288
-0.0527627001355,0.0568398766859,1.14810940288
-0.0525773145945,0.0721257422827,1.14407543793
-0.0525773145945,0.0876113188734,1.14407543793
-0.0523932272232,0.102735925403,1.14006972099
-0.0520288928258,0.117345565804,1.13214185251
-0.0520288928258,0.132669615939,1.13214185251
-0.0520288928258,0.147993666073,1.13214185251
-0.0520288928258,0.163317716208,1.13214185251
-0.0514917938719,0.176797631274,1.12045465004
-0.0513152166684,0.191305202901,1.11661235336
-0.0514917938719,0.20712934844,1.12045465004
-0.0537095896263,0.231869652372,1.16871359344
-0.0587723398638,0.288346439902,1.27887837153
-0.0592376594285,0.395312844258,1.28900366395
-0.0590040822565,0.411132555195,1.28392105546
-0.0590040822565,0.428511005235,1.28392105546
-0.0587723398638,0.444138195273,1.27887837153
-0.0587723398638,0.461448390315,1.27887837153
-0.0585424107163,0.476885586022,1.27387514358
-0.0587723398638,0.496068780397,1.27887837153
-0.0585424107163,0.511370534215,1.27387514358
-0.0585424107163,0.528613008312,1.27387514358
-0.0585424107163,0.545855482408,1.27387514358
-0.0583142736156,0.560903589486,1.26891091032
-0.0583142736156,0.578078870449,1.26891091032
-0.0580879076923,0.59294347776,1.26398521766
-0.0583142736156,0.612429432374,1.26891091032
-0.0585424107163,0.63206785289,1.27387514358
-0.0585424107163,0.649310326987,1.27387514358
-0.0583142736156,0.663955275261,1.26891091032
-0.0583142736156,0.681130556223,1.26891091032
-0.0583142736156,0.698305837185,1.26891091032
-0.0583142736156,0.715481118148,1.26891091032
-0.0583142736156,0.73265639911,1.26891091032
-0.0583142736156,0.749831680072,1.26891091032
-0.0583142736156,0.767006961035,1.26891091032
-0.0580879076923,0.781138182178,1.26398521766
-0.0578632924002,0.795160117638,1.2590976185
-0.0576404075092,0.809074030292,1.25424767264
-0.0199022428116,-0.176940786983,0.612508527392
-0.0201678029913,-0.170900546375,0.620681368824
-0.020440545872,-0.164696933224,0.629075264013
-0.0206802658117,-0.15801376809,0.636452849979
-0.0210505770868,-0.152074307499,0.647849495871
-0.0213049080428,-0.145036773746,0.655676748349
-0.0216095059003,-0.138108610234,0.665051007666
-0.0218776080072,-0.130708631773,0.673302079079
-0.0221989253228,-0.123381058139,0.683190894006
-0.0225298217278,-0.115835035392,0.693374513593
-0.022821400295,-0.107827562226,0.70234809313
-0.0231712602918,-0.0998282588445,0.713115333457
-0.0234278005224,-0.09117430271,0.72101057825
-0.0237432481038,-0.0825113270094,0.730718747089
-0.0241221781071,-0.0737797087513,0.742380641706
-0.0244567354444,-0.0646151590704,0.752676929615
-0.0248589743131,-0.0553225017253,0.765056174479
-0.0251544848292,-0.0455016673375,0.774150763102
-0.0255802025711,-0.0356159248587,0.78725259035
