4.18256006671,2.25793199589,28.3006139524
4.18259848222,2.26356168486,28.2996923144
4.18148287342,2.26811849558,28.2969219423
4.18037559611,2.27264127554,28.2941722596
4.17927655731,2.27713040452,28.2914430355
4.1781856654,2.28158625671,28.2887340425
4.17710283015,2.28600920073,28.2860450564
4.1765832243,2.29096622684,28.2842565197
4.17551223859,2.29533036046,28.281598789
4.17499840501,2.30024304682,28.2798282356
4.17448645149,2.30513775809,28.2780641605
4.17288745398,2.30882439439,28.2745933592
4.17238305347,2.3136679621,28.2728516069
4.17188048179,2.31849396826,28.2711161698
4.17084389635,2.32268770652,28.268549117
4.16981477359,2.32685125287,28.2660005452
4.16932133062,2.33161022236,28.2642930059
4.16830318598,2.33571946314,28.2617733593
4.16729230589,2.33979938416,28.2592716905
4.16680774751,2.34449292937,28.2575913348
4.16632491167,2.34916978969,28.2559169524
4.16481443544,2.35251859241,28.2526618021
4.16382831468,2.35648900579,28.2502230899
4.16335581359,2.36109541855,28.248579334
4.16237998988,2.36501489546,28.2461677525
4.16141098283,2.36890699267,28.2437730172
4.16044872127,2.37277199608,28.2413949522
4.15900014536,2.37592864124,28.238282853
4.15854415482,2.38042184529,28.2366881418
4.15760171244,2.38420724333,28.2343590565
4.15666574053,2.38796665215,28.232045962
4.15525633322,2.39100233447,28.2290242705
4.15481294343,2.39540856546,28.2274670906
4.15389598812,2.39909159256,28.2252009923
4.15298524303,2.4027496758,28.2229502415
4.15161343065,2.40566973599,28.220015241
4.15071799563,2.40927502181,28.2178007979
4.14982855404,2.4128561763,28.2156011767
4.14940311992,2.41713757053,28.2140976365
4.14806741207,2.41994705395,28.2112458091
5.35023795971,1.06512691353,30.5168690393
5.33731663527,1.09985380048,30.4884409739
5.35060391217,1.11875624939,30.508089365
5.39155774558,1.12244139571,30.5782276013
5.36431607265,1.16505757365,30.5236635029
5.33804204077,1.20615999863,30.471037555
5.33822339214,1.23273654817,30.4666867002
5.35151879333,1.25282958904,30.4861401792
5.33858609489,1.28588964725,30.4579849908
5.31321955298,1.32416625295,30.4074235011
4.16833163783,1.85383114541,28.3356297383
4.16889177109,1.85893931097,28.3357013719
4.1678823922,1.86469961336,28.3329457928
4.16688016428,1.87041910673,28.3302097357
4.16887708948,1.93376559675,28.3225436458
4.16683303673,1.93940464757,28.3180210068
4.16481769205,1.94496449971,28.3135618867
4.16434511319,1.95027596709,28.3118128904
4.16591176146,1.95537595118,28.3136256301
4.16749505818,1.96053013174,28.3154576333
4.17067611113,1.96564699255,28.3200577634
4.17231077964,1.97094012068,28.3219541722
4.17450565561,1.97627866177,28.3248108788
4.17618212301,1.98169746537,28.3267574766
4.17955303444,1.98719926845,28.3316182008
4.18242593502,1.99280572404,28.3355997913
4.18477067379,1.99848825405,28.3386551506
4.18480894532,2.00409684265,28.3377369669
4.18368924827,2.00960549416,28.3348348787
4.18200633603,2.01501350337,28.3309769871
4.18034206721,2.02036160229,28.3271618336
4.18037977344,2.02588734779,28.3262572122
4.18155044625,2.03159274634,28.327279291
4.18387989138,2.03754372327,28.330261103
4.18624439142,2.04358425411,28.333287787
4.18628280694,2.04921394308,28.332366149
4.1851533891,2.05457414009,28.3294733137
4.18403240588,2.05989430655,28.3266020824
4.18349407656,2.06532813469,28.3247179676
4.18468734894,2.07123444313,28.3257438472
4.18414679175,2.07665724402,28.323857817
4.18418492037,2.08224488984,28.3229430619
4.18480194877,2.088028736,28.3229944486
4.18426117762,2.09342018149,28.3211135516
4.18545956135,2.09944284892,28.3221278442
4.18608129994,2.10528070386,28.3221778932
4.18611964333,2.11089982284,28.3212579856
4.18615798671,2.11651894181,28.320338078
4.1861963301,2.12213806079,28.3194181704
4.18740878339,2.1283030242,28.3204318074
4.1874472713,2.133943323,28.3195084324
4.18748575922,2.13958362179,28.3185850574
4.18752424713,2.14522392059,28.3176616824
4.18815340608,2.15118128717,28.3177035821
4.18938017202,2.15749139803,28.3187164832
4.18941887878,2.16316376763,28.3177878579
4.19125732323,2.16989917927,28.3197833477
4.19190082113,2.1759719359,28.3198297795
4.19376769298,2.18283290423,28.3218523677
4.20005570984,2.19260887385,28.3310049093
4.19945975558,2.19804882214,28.3290201208
4.19886612649,2.20346754594,28.3270430762
4.19764610505,2.20842615107,28.324064122
4.19705944737,2.21379322059,28.3221081924
4.19461748928,2.21777581161,28.3171885261
4.1928203212,2.22215440667,28.3133138205
4.19285939828,2.22788104583,28.3123763107
4.1922908456,2.23312895916,28.3104725864
4.19112137641,2.23787092582,28.3076190282
4.18996077336,2.24257694199,28.3047871038
4.18940308197,2.2477474156,28.3029157432
4.18884749661,2.25289836364,28.3010514496
4.18770418098,2.25751243481,28.2982655417
4.18598614702,2.26156976241,28.2945839962
4.18602434697,2.26716786003,28.29366753
4.18490220661,2.27168575468,28.290935101
4.18378839984,2.27617009711,28.2882229645
4.18268283417,2.28062125971,28.2855308951
4.18158541848,2.28503960938,28.2828586711
4.18105852252,2.28998930039,28.281079286
4.17997309499,2.29434901643,28.278438073
4.18001052479,2.29983425139,28.2775400835
4.17948940182,2.30472971053,28.2757801945
4.17786309616,2.30841857413,28.2723218601
4.17734965906,2.31326287887,28.2705842332
4.17629140386,2.31748313837,28.2680144603
4.17524078108,2.32167296023,28.2654632212
4.17473668416,2.32644981503,28.2637535758
4.1736972902,2.33058493417,28.2612313453
4.1731986636,2.3353201812,28.2595384571
4.17164071113,2.33876681689,28.2562407772
4.17114928504,2.34345385497,28.2545687953
4.16961322032,2.34683297501,28.2513207956
4.16912884175,2.35147268905,28.2496693004
4.16812928,2.35543979857,28.2472454027
4.1671367252,2.35937909853,28.2448384967
4.16666091608,2.36395627927,28.2432127878
4.1656786721,2.36784528228,28.2408325304
4.16470325388,2.37170726006,28.2384688137
4.1637345905,2.37554249334,28.236121466
4.16277261205,2.37935125896,28.2337903177
4.16181724956,2.38313382998,28.2314752018
4.16086843502,2.38689047569,28.2291759535
4.16041392863,2.39131881425,28.227613187
4.15899018232,2.39432705008,28.2246244113
4.15806061271,2.39800749921,28.2223717989
4.15666079219,2.40095649338,28.2194347741
4.156220265,2.4052939962,28.2179121114
4.15437038046,2.40747500421,28.2143319766
4.15347172308,2.41105021772,28.2121512625
4.15350578201,2.41604146098,28.2113341446
4.15261298641,2.41957631061,28.2091706461
5.12729451098,1.14738438962,30.0720819627
5.34797426327,1.02663564019,30.4667748305
5.34815401839,1.05297826317,30.4624622719
5.34833377351,1.07932088615,30.4581497134
5.37492277198,1.08994317779,30.5012935305
5.38867016201,1.10892691928,30.5212357536
5.12821159788,1.28178097567,30.0500798581
5.11905145789,1.30922281094,30.0297656127
5.36232629672,1.2041793411,30.4599512138
5.3625076481,1.23075589063,30.455600359
5.36268899947,1.25733244017,30.4512495043
5.36287035085,1.28390898971,30.4468986496
5.33708003933,1.32222015865,30.3965306209
5.32460782483,1.35382212681,30.3698811338
5.35031107984,1.36908973892,30.4107115694
4.1732149489,1.93345656066,28.3194056583
4.17062167951,1.93916510141,28.3140157173
4.16910184852,1.94464017016,28.3104836346
4.16862260152,1.94994291283,28.3087430833
4.17020906267,1.95503217052,28.3105364386
4.17181235301,1.96017541507,28.3123488178
4.17449835004,1.96531083476,28.3159951962
4.17723269022,1.97053868284,28.3197072028
4.17891182719,1.97588710207,28.3216120037
4.180609295,1.98129390903,28.323537599
4.18402286954,1.98678113708,28.3283538429
4.18635337454,1.99235582354,28.3313215167
4.18871868848,1.99801377476,28.3343335164
4.1887568171,2.00360142058,28.3334187613
4.18704567908,2.0090428718,28.3295687574
4.18592806304,2.01448227696,28.3267237285
4.18481868581,2.01988158407,28.3238996724
4.18485632256,2.02539714594,28.3229967182
4.18546661586,2.03100127875,28.3230475398
4.18898558884,2.03712729551,28.3279302305
4.1913885057,2.04316469303,28.3309393763
4.19142692121,2.04879438199,28.3300177383
4.18851414416,2.05375801702,28.3242175397
4.18796847978,2.0591931518,28.3223413649
4.18742484159,2.06460810451,28.3204721568
4.18921436058,2.07065317044,28.3224416996
4.18984079664,2.07641533406,28.3224921485
4.18929061783,2.08182846209,28.3206121894
4.18932874645,2.08741610791,28.3196974342
4.18936687507,2.09300375373,28.3187826791
4.18999359642,2.09880772457,28.3188262837
4.19062266675,2.10463344898,28.3188700518
4.19066093828,2.11024203758,28.3179518681
4.19069920981,2.11585062619,28.3170336844
4.19073748134,2.12145921479,28.3161155007
4.19136912946,2.12733840643,28.3161542613
4.19140747285,2.13295752541,28.3152343537
4.19144581624,2.13857664438,28.3143144461
4.19148415962,2.14419576336,28.3133945385
4.19211840047,2.15012878338,28.3134282537
4.19275503193,2.15608416639,28.313462096
4.19460199237,2.16274102571,28.3154216431
4.19585796379,2.1691191331,28.3164297153
4.1971235299,2.17554596454,28.3174454885
4.19839880107,2.18202208049,28.3184690512
4.20541138726,2.19217205738,28.328559915
4.20480496473,2.19761285948,28.3265799055
4.20355944207,2.20260391716,28.3235969549
4.20232358192,2.20755625526,28.3206371453
4.20172900567,2.21291461963,28.3186916354
4.19988040283,2.2173465611,28.3147858807
4.19805302347,2.22172762023,28.3109249673
4.19809210055,2.22745425938,28.3099874575
4.19751355437,2.2327029878,28.3080882955
4.1957135388,2.23696328691,28.3042948634
4.19453775687,2.24166383452,28.3014808733
4.19397247632,2.24682626945,28.299619289
4.19280987974,2.25146318476,28.2968387691
4.19225102738,2.25657814289,28.2949963861
4.19169426963,2.26167392989,28.2931609085
4.1905488624,2.26622077421,28.2904252698
4.18941197737,2.27073378851,28.2877099851
4.18828351979,2.27521334896,28.2850148282
4.1871633963,2.27965982616,28.282339576
4.1860515149,2.28407358525,28.2796840089
4.18551738588,2.28901596156,28.2779137203
4.18441762951,2.29337126305,28.2752889217
4.18445499083,2.29884646301,28.2743925751
4.18392670339,2.3037347863,28.2726416475
4.18227917474,2.30742237115,28.2692066944
4.18231626465,2.31285779564,28.2683168595
4.18068639083,2.31647596025,28.2649239561
4.1796218386,2.32066186667,28.2623884336
4.1785649229,2.32481774563,28.2598710995
4.1786015472,2.33018493618,28.2589924352
4.17701190321,2.33366520014,28.2556917948
4.17597365841,2.33773792024,28.2532206382
4.17547541641,2.34241846778,28.2515569815
4.17444811148,2.3464386346,28.2491135527
4.17395519991,2.35107904459,28.2474659529
4.17241514389,2.3543942753,28.2442781707
4.17140932977,2.35833034184,28.2418858574
4.17041052957,2.36223896073,28.2395102266
4.16993150717,2.3667872673,28.2379022783
4.16894302944,2.37064621713,28.2355528246
4.16796138516,2.37447848961,28.2332196131
4.16698650373,2.37828436043,28.2309024757
4.16601831548,2.38206410147,28.2286012469
4.16456099626,2.38513002171,28.2255972022
4.16459586943,2.39024058897,28.2247605498
4.16315322764,2.3932492095,28.221791391
4.16221113453,2.39692707695,28.2195521862
4.16079269617,2.39987656349,28.2166343588
4.16034596092,2.40420858781,28.2151189666
4.15942275297,2.40781272885,28.2129246488
4.15850571403,2.41139278652,28.2107449937
4.15712461505,2.41423091695,28.2079098847
4.15668989745,2.4184816109,28.2064290879
5.13815313443,1.1297016257,30.0496093662
5.12898723238,1.15806254446,30.0294483885
5.1479147831,1.16811446916,30.0590710786
5.14867902218,1.28011162421,30.0407359915
5.15843965614,1.29738001434,30.0538968104
5.18831011622,1.30460254903,30.1021581367
5.19868246956,1.32259844099,30.1162058605
5.19963521008,1.46221996686,30.0933483795
4.17700111582,1.9332368114,28.3153741824
4.17491069752,1.93884983032,28.3109258398
4.17337101521,1.9443169754,28.307416153
4.1734067425,1.94955271167,28.3065590091
4.17396595354,1.95473910905,28.3065784406
4.17558345096,1.95986268224,28.3083635145
4.17829341393,1.96497706695,28.3119615126
4.18215460079,1.970137245,28.3174602334
4.18386045772,1.97548348491,28.319352836
4.18558493718,1.98088808877,28.3212660998
4.18963269629,1.98637715727,28.3270165951
4.19142122472,1.99194248266,28.3290079224
4.19263732864,1.99754282575,28.3300440367
4.19326780878,2.00314726855,28.3301084649
4.19153476268,2.00858116063,28.3262839996
4.18982088,2.01395496662,28.3225018238
4.18870128101,2.01933638206,28.319703643
4.18873877953,2.02483168887,28.3188040048
4.18993379022,2.03050165222,28.3197929611
4.19290323609,2.03651083778,28.323664572
4.19592843461,2.04263284845,28.3276088742
4.19536478531,2.04812957439,28.3257122799
4.1936103269,2.0533423653,28.3218910109
4.19187537655,2.05849719453,28.318112231
4.19191322253,2.06404342051,28.3172042567
4.19313115676,2.06991199094,28.3181964594
4.19435818666,2.07582438851,28.319196072
4.19380061475,2.08122853017,28.3173257586
4.19383867231,2.08680576314,28.3164127082
4.19387672988,2.09238299611,28.3154996577
4.19391478745,2.09796022909,28.3145866073
4.19454882977,2.10376261762,28.3146222963
4.1945869584,2.10935026344,28.3137075412
4.19462508702,2.11493790927,28.3127927861
4.19526164396,2.12078290838,28.3128251865
4.1952998439,2.126381006,28.3119087203
4.19533804385,2.13197910363,28.3109922541
4.19537624379,2.13757720126,28.3100757878
4.19601540134,2.14347558066,28.3101031573
4.19665695898,2.149396109,28.3101306294
4.19730093026,2.15533891126,28.310158205
4.19978510597,2.16231828379,28.3130554283
4.20168282996,2.16904886051,28.3150238556
4.20234623866,2.17511999318,28.3150611976
4.20301218619,2.18121435972,28.3150986825
4.21011025663,2.19132713077,28.3250973572
4.21015017389,2.19717689682,28.3241396903
4.20888383698,2.20216965214,28.3211662418
4.20762732406,2.20712367471,28.3182158607
4.20702248139,2.21248287642,28.3162750377
4.20450866503,2.21646788534,28.3114096389
4.20328572573,2.22130083379,28.3085361141
4.20269726069,2.22656131411,28.3066397238
4.20211103908,2.23180173964,28.3047505633
4.20028829379,2.23605908855,28.3009832995
4.1997110653,2.24124189232,28.2991191348
4.19852464753,2.24590859533,28.2963352599
4.19795399401,2.25104362368,28.2944903584
4.19678083197,2.25564735274,28.2917394835
4.19621664255,2.26073534903,28.2899135313
4.19505651452,2.26527721826,28.2871950939
4.19390500219,2.26978535724,28.2844968449
4.19335136997,2.27480000808,28.2827012339
4.19221253248,2.27924801162,28.2800345251
4.19166508033,2.2842174982,28.2782570654
4.18995990476,2.28804619061,28.2747597583
4.18884593157,2.29239708065,28.2721512719
4.18888322466,2.29786228227,28.2712565621
4.18834782845,2.30274348914,28.2695145424
4.18667924175,2.30642978015,28.2661028235
4.18558919362,2.31066710207,28.2635538822
4.18562608253,2.31607307216,28.2626688692
4.18454374918,2.32026042882,28.2601414642
4.1834691799,2.32441774764,28.2576321894
4.18240229146,2.32854535066,28.2551408505
4.1813430018,2.33264355535,28.2526672558
4.18083433059,2.33734147709,28.2510016256
4.17924689637,2.3407530172,28.2477725462
4.17874551551,2.34540346163,28.2461273132
4.17824590128,2.35003752002,28.2444878772
4.1772160828,2.35400270407,28.2420864278
4.17566701109,2.35728524822,28.2389435311
4.17517798975,2.36185012007,28.2373337675
4.17416956547,2.36573292847,28.2349822075
4.17265235281,2.36892061447,28.2319087358
4.17217359488,2.37341815733,28.2303277733
4.17118590499,2.37722113066,28.2280245641
4.17071212933,2.38168126751,28.2264584091
4.16923076437,2.38474914896,28.2234653419
4.16876355225,2.38916603981,28.2219176384
4.16730215164,2.39217502503,28.2189679804
4.16634762508,2.39585030717,28.2167421054
4.16539953052,2.3995008237,28.2145312292
4.16445780318,2.40312682411,28.2123352008
4.16352237912,2.40672855453,28.2101538712
4.16307406899,2.41102018516,28.2086594309
4.16167018939,2.41386017361,28.2058347217
4.16075330008,2.41739053836,28.2036966135
5.13048234567,1.14668197669,29.9916144928
5.1398239844,1.1624680285,30.0040303861
5.1785994214,1.22799304774,30.0555664927
5.17890742225,1.27312973225,30.0481771528
5.17906142267,1.29569807451,30.0444824829
5.21978681641,1.29759393579,30.1103083123
5.21994560649,1.3208641901,30.1064987321
5.18943741128,1.35869574194,30.0503262811
5.19981592557,1.3997441487,30.0600108088
5.19997228416,1.42265807291,30.0562595635
5.21035458895,1.44142596646,30.0698447768
5.22089834701,1.46048571598,30.0836412511
5.20044135991,1.49139984552,30.0450058277
5.21082728382,1.51069811038,30.0585042138
4.18184457021,1.93284177255,28.3131630301
4.17972007971,1.93845757045,28.3087302423
4.17762527067,1.94399490948,28.3043593854
4.17713283541,1.94928028807,28.3026355795
4.17822661076,1.95439824677,28.3035177908
4.17986374284,1.95951101088,28.3052835773
4.18315408611,1.9645806238,28.3097425
4.18595623346,1.96978317331,28.3133851258
4.18824177253,1.97509406885,28.3161695982
4.19113625814,1.9804777854,28.3199305577
4.19408398933,1.98596053822,28.3237607021
4.19530094462,1.99149743119,28.3247697879
4.19593168686,1.99704922396,28.3248239833
4.19656476688,2.00262159376,28.3248783796
4.19541406331,2.00807466768,28.3220559236
4.19368510539,2.01343152921,28.3183109278
4.19255546405,2.01879516975,28.3155383194
4.19259282537,2.02427036971,28.3146419729
4.19438452938,2.03000386387,28.3165503563
4.19738977894,2.03599727156,28.3203846775
4.19923511237,2.04188208583,28.3223537304
4.19927324099,2.04746973165,28.3214389752
4.19750352769,2.05266684138,28.3176556974
4.19634722264,2.05794485877,28.314854741
4.19638499861,2.06348082557,28.3139484463
4.1970189187,2.06917630563,28.3139826881
4.19825584696,2.07506397123,28.3149629061
4.19769310895,2.08044945773,28.3131073971
4.1977310252,2.086005981,28.312197737
4.19776894145,2.09156250427,28.311288077
4.19901097019,2.09754457737,28.3122600785
4.19904902776,2.10312181034,28.3113470281
4.19908708533,2.10869904331,28.3104339776
4.19852175441,2.11403198326,28.3085834414
4.19855974119,2.11959884212,28.3076720893
4.19859772797,2.12516570098,28.3067607372
4.1992393156,2.1310079752,28.3067817758
4.19988329897,2.1368720648,28.306802893
4.20114023521,2.14305759211,28.3077635485
4.20179141495,2.14897733566,28.307786628
4.20306264989,2.15524346279,28.3087564229
4.20559530744,2.1622353637,28.3116485002
4.20626363548,2.16827043211,28.3116792784
4.20756894743,2.17469402182,28.3126769067
4.20824488846,2.18078757328,28.3127098293
4.2147907929,2.19048550072,28.3216483089
4.21549538305,2.19674093416,28.321699475
4.21354856586,2.20131022366,28.317738237
4.2129310662,2.20669109415,28.3157945761
4.21101409842,2.21116758256,28.3118980488
4.2091191812,2.21559257867,28.3080463426
4.208518428,2.22087404735,28.3061472609
4.20791996946,2.22613534276,28.3042554329
4.20669102991,2.23090392082,28.3014255316
4.20547140739,2.23563634663,28.2986170847
4.20426099633,2.24033302977,28.2958298492
4.20305969277,2.24499437363,28.2930635857
4.20309810828,2.2506240626,28.2921419477
4.20190566584,2.25522936419,28.2893998748
4.20133189031,2.26031814234,28.2875782989
4.19894434524,2.26381472567,28.2830886152
4.19838137417,2.26884044122,28.2812956139
4.19782048583,2.27384756402,28.2795092458
4.19666727451,2.27829088075,28.2768592168
4.19552253317,2.28270156265,28.2742286516
4.19438616885,2.28707996797,28.2716173363
4.19383974594,2.29198977823,28.2698714767
4.19329531505,2.29688168943,28.2681319817
4.19275286531,2.30175579925,28.2663988166
4.19163684352,2.30602543129,28.2638395603
4.19052888532,2.31026421398,28.2612987953
4.189996314,2.31507025249,28.259593576
4.18833681261,2.3186505591,28.2562719436
4.18781197898,2.32340717052,28.2545879336
4.18728902107,2.32814678222,28.252909942
4.18621232885,2.3322464063,28.250444292
4.18514327803,2.33631693493,28.247996141
4.18408178753,2.34035867678,28.2455653032
4.18357187367,2.34500981718,28.2439239657
4.18252151078,2.34899965885,28.2415202764
4.18147851098,2.35296153161,28.239133437
4.17990984722,2.35624379852,28.2360114637
4.17941429308,2.36080253853,28.2344096043
4.17839292387,2.36468224666,28.2320722652
4.17737861551,2.36853513394,28.2297510843
4.17637129502,2.37236147752,28.2274458948
4.1758877892,2.37683763848,28.225878042
4.17489075573,2.38061586087,28.2235979748
4.17390053247,2.38436827621,28.2213334815
4.17342535976,2.38878581633,28.2197894122
4.17194023939,2.39179673617,28.2168505829
4.1709700333,2.39547329715,28.2146318659
4.16950978901,2.39842515811,28.2117437703
4.16855586143,2.40204868677,28.2095607671
4.16809837845,2.40635532969,28.2080648185
4.16715393136,2.40993427787,28.2059050086
4.16621576373,2.41348943028,28.2037595588
4.16576595986,2.41774135468,28.2022856493
5.12313887728,1.16293775879,29.9360943197
5.15984193956,1.16083533636,29.9948917128
5.1888496317,1.16477576624,30.0403833453
5.19891318709,1.1811744234,30.053541505
5.2402560029,1.17950841334,30.1196490847
5.19922118794,1.22631110791,30.0461521651
5.21965895667,1.23763898442,30.0767110394
5.19952918878,1.27144779242,30.0387628253
5.19968318921,1.29401613468,30.0350681553
5.19983718963,1.31658447693,30.0313734854
5.19999119005,1.33915281919,30.0276788154
5.19022526205,1.36637064531,30.0073801885
5.21037103603,1.37974084278,30.0371176792
5.21052620657,1.40248066312,30.0333949365
5.21068137712,1.42522048345,30.0296721939
5.20076119217,1.45199453047,30.0092054658
5.2316112369,1.46279581068,30.0564323552
5.21114688875,1.49343994446,30.0185039659
5.22153525967,1.51260607488,30.0316960963
4.1861364951,1.93253600892,28.3100582714
4.18398559496,1.93814409498,28.3056550684
4.18186469288,1.94367396651,28.3013132757
4.1813657367,1.94895070545,28.299597771
4.18247238647,1.95405857506,28.3004678313
4.18412900588,1.9591605743,28.3022144544
4.18690504598,1.96425062489,28.3057452534
4.19029458032,1.96940744727,28.3102410635
4.19203517807,1.97472087983,28.3120844674
4.19612096986,1.98007122541,28.3176549181
4.19851893566,1.98554544914,28.3205167658
4.19915211672,1.99105565449,28.3205628384
4.19978763162,1.99658616983,28.3206090809
4.20042549327,2.00213710765,28.3206554941
4.19926481924,2.00757190162,28.3178589588
4.19811265439,2.01296685183,28.3150829255
4.19638154569,2.01825790349,28.3114033658
4.19700619858,2.02378759647,28.3114324598
4.19881892387,2.02950790358,28.3133196595
4.2012545946,2.03538841527,28.3161706053
4.20372657724,2.04135659592,28.3190640542
4.20376463481,2.04693382889,28.3181510037
4.20197323093,2.05212428678,28.3143930167
4.20020163577,2.05725735039,28.3106765841
4.20023927251,2.06277291226,28.3097736299
4.20148125047,2.06860421608,28.3107328368
4.20151902645,2.07414018288,28.3098265421
4.20155680243,2.07967614968,28.3089202473
4.20159457841,2.08521211648,28.3080139526
4.20223815283,2.0909478687,28.3080371967
4.20349449749,2.0969165281,28.3089952964
4.20353248427,2.10248338696,28.3080839443
4.20295994951,2.10781796579,28.306241207
4.20238953677,2.11313277266,28.3044052995
4.20182123429,2.11842791729,28.3025761841
4.20246522874,2.12422522463,28.302589351
4.20250307473,2.12977145062,28.3016813767
4.20498899642,2.13645563705,28.3044720205
4.20564493926,2.1423408855,28.3044888568
4.20692587092,2.14855856232,28.3054426266
4.20947817917,2.15547342467,28.3082986862
4.21078826343,2.16181181902,28.3092777922
4.21146647133,2.16784608162,28.3093040599
4.2121472648,2.17390334894,28.3093304278
4.21347759072,2.18036078684,28.3103209761
4.22080067494,2.19045520545,28.3202169266
4.22016541402,2.19588874287,28.3182570553
4.21886261432,2.20087680251,28.3153122473
4.2175699019,2.20582624073,28.3123902404
4.2156298408,2.21029910734,28.3085208671
4.21436191528,2.21516497402,28.3056529096
4.21375113026,2.22044726091,28.3037584077
4.21249761771,2.22524661368,28.3009250069
4.21189386576,2.23047957032,28.2990503131
4.21065452098,2.23521360471,28.2962508699
4.20942453662,2.23991188427,28.2934725701
4.20820380704,2.24457481255,28.2907151751
4.20761605191,2.2497027039,28.2888842894
4.20640893814,2.25430283802,28.2861595327
4.20521082243,2.25886868185,28.2834550867
4.20402160454,2.26340061738,28.2807707254
4.20344922436,2.26842710034,28.2789820196
4.20227309863,2.27289863704,28.2763290447
4.20170710543,2.27787982516,28.274558414
4.20054385608,2.28229201661,28.2719362981
4.19938911918,2.28667192042,28.2693333704
4.19883356031,2.29158247582,28.2675916815
4.19828002676,2.29647512944,28.2658563421
4.19772850749,2.30134997898,28.2641273174
4.19659444529,2.30562108243,28.261576297
4.1948902767,2.30927186807,28.2582259723
4.1943508142,2.31407104262,28.2565293526
4.19324106961,2.3182505611,28.2540330335
4.19213925728,2.32240020511,28.2515545576
4.19104529247,2.32652029382,28.2490937344
4.19051937613,2.33122909921,28.2474344559
4.18943696204,2.33529602198,28.2450013025
4.18836218927,2.33933423421,28.242585326
4.18729497719,2.34334403888,28.2401863451
4.18678210789,2.34796544179,28.2385630954
4.18572602542,2.35192400208,28.2361907785
4.1846773074,2.35585495786,28.2338350046
4.18363587707,2.35975859688,28.2314956013
4.18260165873,2.36363520288,28.2291723986
4.18210487821,2.36814965341,28.2275934329
4.1810812774,2.37197732484,28.2252956757
4.18006470428,2.37577871682,28.2230136941
4.17905508671,2.37955409907,28.2207473262
4.17805235356,2.38330373763,28.2184964123
4.17654369056,2.38634255085,28.2155641619
4.17606726073,2.39072682974,28.2140403184
4.17559244153,2.39509628714,28.2125216265
4.17410887571,2.39805005023,28.2096441777
4.17313953075,2.40167483635,28.2074682129
4.17217666309,2.40527540115,28.2053067881
4.17122020802,2.40885198659,28.2031597583
4.16978049298,2.41169334118,28.2003717424
4.16981432621,2.41665150852,28.1995600393
5.18948393819,1.15312834938,30.0018302015
5.2193809532,1.15692414132,30.0478218474
5.21953495362,1.17949248357,30.0441271775
5.22990812587,1.19612756061,30.0574137613
5.21984295447,1.22462916808,30.0367378376
5.21999695489,1.24719751034,30.0330431676
5.22015095531,1.26976585259,30.0293484977
5.22030495574,1.29233419485,30.0256538278
5.22045895616,1.3149025371,30.0219591578
5.22061295658,1.33747087936,30.0182644879
5.22076695701,1.36003922161,30.014569818
5.22092095743,1.38260756387,30.010875148
5.23130466077,1.40078594363,30.0239090773
5.23145983132,1.42352576396,30.0201863347
5.23161500186,1.4462655843,30.016463592
5.23177017241,1.46900540463,30.0127408493
5.23192534295,1.49174522497,30.0090181067
5.22184495997,1.5180176174,29.9887071284
4.18768771086,1.93791063564,28.301721074
4.18554845147,1.94342291559,28.2974217051
4.18558393048,1.94862226798,28.2965705176
4.18670335849,1.95372008767,28.2974285059
4.18837931911,1.95881136601,28.2991560888
4.19174850037,1.96385558604,28.3035341012
4.19461742232,1.96903306403,28.3071082379
4.19695708864,1.97431944199,28.309837498
4.1999202028,1.97967656886,28.3135272958
4.20233719678,1.98512787485,28.3163484671
4.2035777571,1.99063120989,28.317324774
4.20482746254,1.99617511424,28.3183082781
4.20486509928,2.00169067611,28.3174053238
4.20308734438,2.00707282145,28.3136927629
4.20192542676,2.01244989082,28.3109420842
4.20077196544,2.01778782653,28.3082114246
4.20140348252,2.02330658322,28.3082346473
4.20323706357,2.02901376128,28.3101008051
4.20631307047,2.03497583898,28.3138612906
4.20758221379,2.04072557824,28.3148392379
4.20762013004,2.04628210151,28.3139295778
4.20642639841,2.05158373938,28.3111424064
4.2046334867,2.05671034355,28.3074507494
4.2046710542,2.06221575926,28.3065494562
4.20470862171,2.06772117496,28.3056481629
4.20596481047,2.07355998458,28.3065903648
4.20661527831,2.07926357339,28.3066109326
4.20482132423,2.08423742208,28.3029442833
4.20607792916,2.09013722107,28.3038765005
4.207343849,2.09608075381,28.3048156281
4.20738169498,2.1016269798,28.3039076538
4.20741954097,2.10717320579,28.3029996795
4.20622875409,2.11224020307,28.3002580149
4.20626646032,2.11776594856,28.2993533934
4.20630416655,2.12329169406,28.298448772
4.20573074433,2.1285485991,28.296637376
4.21009469388,2.13603920929,28.302141148
4.2101328225,2.14162685511,28.3012263929
4.21142817448,2.14783020363,28.3021661474
4.21529573999,2.15537768843,28.3068854092
4.21598121943,2.16138827434,28.3069070841
4.21601999968,2.16707141541,28.3059766954
4.21736001816,2.17347818956,28.3069506818
4.21871029299,2.17993400039,28.3079321229
4.22341972769,2.18841277871,28.3138027195
4.22413697822,2.19462771741,28.3138383417
4.22349894288,2.20002154827,28.3119022445
4.22286337762,2.20539449752,28.3099736426
4.22089275435,2.20986985682,28.3061182217
4.21894475545,2.21429383531,28.3023070642
4.21832638454,2.21956769771,28.3004225703
4.21771037108,2.2248214543,28.2985452608
4.21644658252,2.22958596712,28.2957424198
4.21519235705,2.23431442684,28.2929607878
4.21458807692,2.23949073878,28.291115291
4.21334792131,2.24415525147,28.2883667644
4.21211706204,2.2487847985,28.285638841
4.2115241859,2.25388563133,28.2838243002
4.20968281749,2.2579405565,28.2802438843
4.20847922856,2.26246753347,28.2775763995
4.2078996616,2.26748644463,28.2757969111
4.20670929961,2.2719532077,28.2731605654
4.20613618696,2.27692697183,28.2713990205
4.20435470819,2.2807886729,28.267945751
4.20379008158,2.28570997179,28.2662065961
4.20322751335,2.29061332972,28.2644737814
4.20266699228,2.29549884464,28.2627472723
4.20151502439,2.2997911628,28.2602012555
4.2003713798,2.30405246771,28.2576736344
4.19982106181,2.30886970641,28.2559749515
4.19927272477,2.31366960478,28.2542823832
4.19814532661,2.31785056311,28.2517941234
4.19702598689,2.32200163668,28.2493236492
4.19591461952,2.32612314476,28.2468707706
4.19538004831,2.33083265606,28.2452154433
4.19371546358,2.33427871897,28.2420170538
4.19318854743,2.33894058976,28.2403819786
4.19154719407,2.34231975074,28.2372315059
4.19102777153,2.34693484968,28.2356162793
4.19051016639,2.35153380092,28.2340067042
4.18944476758,2.35546611721,28.2316585455
4.18784281831,2.35871827618,28.2285917057
4.18733610387,2.36324905497,28.2270110117
4.18629268622,2.36710024024,28.2247112999
4.18525644462,2.37092493916,28.2224274042
4.18422730531,2.37472342404,28.2201591622
4.18267934735,2.37782165892,28.2172034124
4.18219004345,2.38224282232,28.2156689993
4.18066291751,2.38528187925,28.2127560755
4.18018033026,2.38966054024,28.2112395543
4.1796993717,2.39402442371,28.2097281513
4.17870796241,2.39767494235,28.207544585
4.1772162042,2.40060093275,28.2047065657
4.17674501806,2.40490279979,28.2032212253
4.17577335062,2.40848062597,28.2010811403
4.17530691242,2.4127479436,28.1996092329
4.17484202228,2.41700109847,28.1981422106
5.1620358722,1.15976526603,29.9183369152
5.2096495068,1.15148361768,29.9926241392
5.25037623898,1.14895320045,30.0553733874
5.24015672015,1.17781054374,30.0347128499
5.24031072058,1.200378886,30.03101818
5.240464721,1.22294722825,30.02732351
5.24061872142,1.24551557051,30.0236288401
5.24077272185,1.26808391276,30.0199341702
5.25130726225,1.28539212246,30.0330369315
5.2514624328,1.30813194279,30.0293141888
5.24123472312,1.33578893953,30.0088501603
5.24138872354,1.35835728178,30.0051554904
5.24154272396,1.38092562404,30.0014608205
5.24169672439,1.40349396629,29.9977661505
5.24185072481,1.42606230855,29.9940714806
5.25239345606,1.4445708648,30.0069777328
5.25254862661,1.46731068514,30.0032549901
5.25270379715,1.49005050547,29.9995322475
4.19136401053,1.9376788043,28.2978145128
4.18975207578,1.94310463442,28.2944034756
4.18978749326,1.94829496972,28.2935537643
4.19147081867,1.95333124701,28.2952520468
4.19261476098,1.95846337956,28.296108424
4.19545588403,1.96352931115,28.2995728781
4.19834759591,1.96868544637,28.3030990201
4.20129125995,1.97393421609,28.3066885122
4.20428828887,1.97927813934,28.3103430773
4.20673277565,1.98471658031,28.3131358378
4.20737750843,1.99019502726,28.3131681545
4.20863657853,1.99571697065,28.3141327822
4.20806203436,2.00117879106,28.3123026002
4.20688194803,2.00657738679,28.3095569987
4.20510934783,2.01188403257,28.3059209125
4.20454744753,2.01725713463,28.3041255249
4.20518352764,2.02275488155,28.3041412426
4.20703112042,2.02843819326,28.3059781597
4.21013075065,2.03437299174,28.3096867955
4.21140932233,2.04009922948,28.3106456812
4.21207108532,2.04575137904,28.3106738024
4.21086312173,2.05104518805,28.3079037995
4.20843633235,2.05603114064,28.303322706
4.20847376215,2.0615163756,28.3024247165
4.20851119195,2.06700161056,28.3015267271
4.20977674911,2.07281629124,28.3024502993
4.20981431661,2.07832170695,28.3015490061
4.20985188412,2.08382712265,28.3006477129
4.21050711806,2.08952861043,28.3006572529
4.21178708212,2.09545889749,28.3015827337
4.2118248581,2.10099486429,28.3006764389
4.21062002829,2.10607529604,28.2979483902
4.21003972165,2.11135420119,28.2961412468
4.21007728916,2.11685961689,28.2952399535
4.21073293851,2.12262198165,28.2952395274
4.21015242417,2.12787044831,28.2934373671
4.21393381179,2.13505478298,28.2979714292
4.21523851995,2.14121042736,28.2988955204
4.21783897184,2.14803097797,28.3016862003
4.22047885358,2.15495494651,28.3045191944
4.22117417542,2.16096472966,28.304536376
4.22187214303,2.16699738062,28.304553623
4.22323707373,2.17341610775,28.3055240339
4.22394299525,2.17950721395,28.3055432697
4.22872346983,2.18798019815,28.3113814349
4.22945102668,2.19419429626,28.311412352
4.22880268502,2.19958896772,28.3094809599
4.2267939049,2.2041065397,28.3056209549
4.22683328338,2.20987734793,28.3046762141
4.22484738344,2.21430976472,28.3008660437
4.22354909331,2.21914172636,28.2980382794
4.22160075826,2.22347928137,28.2943021004
4.22163953851,2.22916242244,28.2933717117
4.22036566548,2.23389248464,28.2905990493
4.21910139553,2.23858688935,28.2878472887
4.21720362438,2.24275822135,28.284217416
4.21660123372,2.24787032701,28.282405534
4.21536513034,2.25246014544,28.2797150796
4.21413820689,2.25701587751,28.2770446059
4.21354707874,2.26205419259,28.2752628052
4.21233366477,2.26654926247,28.2726235642
4.21174913053,2.27154215211,28.2708597626
4.20993352429,2.27544053898,28.2674031289
4.20935765852,2.28038062534,28.265661785
4.20817499995,2.28475153001,28.2630912206
4.20760547707,2.28964771029,28.2613672271
4.20703802289,2.29452610603,28.2596494956
4.20587232002,2.29881417737,28.2571192975
4.2053110715,2.30364957961,28.2554185475
4.20475184692,2.30846754475,28.2537239307
4.20360273583,2.31267470646,28.2512332071
4.2024618531,2.31685174228,28.2487603186
4.20132911065,2.32099897462,28.2463050744
4.20020442168,2.32511672133,28.2438672862
4.1990877006,2.32920529575,28.2414467687
4.19797886303,2.3332650068,28.2390433388
4.19744536405,2.33792045037,28.2374163832
4.19634813298,2.34192817951,28.235039763
4.19525858009,2.34590786349,28.2326797738
4.19417662505,2.34985979565,28.2303362417
4.19365624231,2.3544296458,28.2287442589
4.19203519284,2.35768155764,28.2256978649
4.19152210856,2.36220629773,28.2241249041
4.18992321583,2.36539573203,28.2211232886
4.18941727923,2.36987616614,28.2195689791
4.18891307644,2.37434124605,28.2180199961
4.18734115486,2.37744143544,28.2150751862
4.18631367416,2.38118551183,28.2128511935
4.18581986606,2.38558597313,28.2113293668
4.18375806156,2.3879144787,28.2077694649
4.18327270379,2.39226662053,28.2062689814
4.1827889758,2.39660414831,28.2047735363
4.18127925719,2.39953061713,28.2019541454
4.18131337302,2.40453019844,28.2011356625
4.18032649322,2.40810926536,28.1990025222
4.17934616411,2.4116645752,28.1968835413
4.17887535233,2.41591247869,28.1954234651
5.20997229408,1.14019866644,29.9553254382
5.21989580505,1.15593725994,29.967475693
5.26062448626,1.15356026165,30.0289931923
5.27130986373,1.16999830129,30.0421647856
5.26093248711,1.19869694616,30.0216038524
5.25071044805,1.22696600487,30.0013506931
5.26124048796,1.24383363068,30.0142145126
5.24079199696,1.27704808075,29.9777586727
5.2615484888,1.28897031519,30.0068251727
5.272240887,1.3064372233,30.0198283296
5.27239605754,1.32917704363,30.0161055869
5.26201049007,1.35667534195,29.9957411629
5.26216449049,1.37924368421,29.9920464929
5.26231849092,1.40181202646,29.988351823
5.26247249134,1.42438036872,29.984657153
5.26262649176,1.44694871097,29.9809624831
5.26278049219,1.46951705323,29.9772678132
5.26293449261,1.49208539549,29.9735731432
4.20064116859,1.93135298766,28.3034365425
4.19557214518,1.93736941185,28.2947850945
4.19394114488,1.94278745531,28.2913956969
4.19397650104,1.94796880474,28.2905474567
4.1951212001,1.95304664118,28.2913815364
4.19739890195,1.9580731784,28.2939243497
4.19856767535,1.96323998046,28.294779072
4.2020512961,1.96834029578,28.299118256
4.20442737494,1.97358393584,28.3017708969
4.20743646546,1.97889579485,28.3053613598
4.20989050389,1.98430182689,28.3081027134
4.21114955523,1.9897620249,28.3090418415
4.21241782009,1.99526217967,28.3099878419
4.21183846931,2.00070488275,28.3081719133
4.21126123059,2.00612774407,28.3063626048
4.20886230005,2.01137566792,28.3018506963
4.20889925572,2.0167914206,28.3009640819
4.20954207196,2.02227835652,28.3009740398
4.21079756458,2.02786681416,28.3018855183
4.21454433645,2.03386808186,28.3064627815
4.21583684545,2.03958188252,28.3074079915
4.21650557419,2.04522261998,28.3074300717
4.2152834918,2.05050862176,28.3046771299
4.21221140027,2.05535689895,28.2992248157
4.21163348178,2.06068014132,28.2974318158
4.21228598646,2.06628730219,28.2974353962
4.2129408786,2.07191497916,28.2974389896
4.21422037933,2.07773702667,28.2983458544
4.21488244401,2.08341682322,28.2983511425
4.21492001152,2.08892223893,28.2974498493
4.21558458573,2.09463311671,28.2974534958
4.216251614,2.10036508299,28.2974571559
4.21503271404,2.10543848605,28.2947459696
4.21444537049,2.1107088675,28.2929480246
4.21448286902,2.11620417431,28.2920483863
4.21514541656,2.12195473317,28.2920420899
4.21393503951,2.12693039967,28.2893606914
4.21584804292,2.1332420498,28.2911328161
4.22163957069,2.14138563793,28.2984051137
4.22429818814,2.1482332687,28.3012026283
4.22566196718,2.15453220459,28.3021529796
4.22770766869,2.1612182564,28.304059061
4.22842078005,2.16727443406,28.3040754622
4.22913662044,2.17335378836,28.3040919263
4.22917569751,2.17908042751,28.3031544165
4.23402721197,2.1875476176,28.3089601503
4.23406681956,2.19335200238,28.3080099128
4.23271785696,2.19832095365,28.3051217666
4.23206696655,2.20367646149,28.3032136766
4.23141858145,2.20901135579,28.301312931
4.22941015998,2.21344026243,28.2975293578
4.22809694971,2.21826632834,28.2947197043
4.22679371425,2.22305573669,28.2919313923
4.226165155,2.22827300935,28.2900808508
4.22487659692,2.23299749909,28.2873258512
4.22359773434,2.23768644034,28.2845915811
4.22232845825,2.2423402328,28.2818778073
4.22171648148,2.24745312032,28.2800703016
4.21917754994,2.25104524594,28.2756363762
4.21921546619,2.25660176921,28.2747267161
4.21797883738,2.26112532524,28.2720845764
4.21738280096,2.26613744793,28.2703185133
4.21615973924,2.27060095726,28.2677071729
4.21557032628,2.27556807165,28.2659588759
4.21436060885,2.27997257779,28.263377819
4.21315971166,2.28434497002,28.260815581
4.21196753858,2.28868559831,28.2582719568
4.21200462848,2.2941210228,28.2573821219
4.21082095055,2.29841056021,28.2548601298
4.20964580962,2.30266916034,28.2523563271
4.20847911367,2.30689715666,28.2498705175
4.20791721631,2.31168337658,28.2481949675
4.20735733072,2.31645246034,28.2465254165
4.20620712347,2.32060111714,28.2440781454
4.20506509386,2.32472027818,28.2416482736
4.20393115499,2.32881025691,28.2392356164
4.20280522119,2.33287136234,28.2368399914
4.20168720798,2.33690389916,28.2344612188
4.20114907189,2.34153660829,28.23284802
4.19947461138,2.34488446433,28.2297535248
4.19894408523,2.349470955,28.2281597826
4.19785308397,2.35339677568,28.2258400983
4.19676963798,2.35729540974,28.223536478
4.19569366905,2.36116713861,28.2212487554
4.19462510005,2.36501223984,28.2189767665
4.19411109307,2.36949333218,28.2174261413
4.19250985855,2.37262365069,28.214479345
4.191463037,2.37639049665,28.2122535955
4.19042331723,2.38013178781,28.2100429458
4.18939062722,2.38384778334,28.2078472428
4.18783744517,2.38685829871,28.2049933777
4.18734605321,2.39120490678,28.2035000743
4.18633402995,2.39484653581,28.2013483129
4.18584761216,2.39915801578,28.1998685825
4.18588172798,2.40415759708,28.1990500996
4.18487963581,2.40773790474,28.1969239042
4.18388419532,2.41129444709,28.194811822
4.1834058654,2.41554296377,28.193355178
5.22006842073,1.14466946226,29.9308089463
5.249980644,1.14819415429,29.9742120145
5.2707193289,1.15809836038,30.0030078788
5.28140025322,1.17444666408,30.0158841948
5.28155425364,1.19701500633,30.0121895249
5.27117787235,1.2252966534,29.9920068265
5.27133072017,1.24769608441,29.9883398091
5.26110737219,1.27539113062,29.9684842201
5.2716364158,1.29249494643,29.9810057742
5.2930193412,1.3047425038,30.0103424704
5.28247825618,1.33242505987,29.9900215053
5.2826322566,1.35499340212,29.9863268353
5.27224780707,1.38209267046,29.9663377045
5.27240065489,1.40449210147,29.9626706871
5.28309425787,1.42269842889,29.9752428255
5.2832482583,1.44526677114,29.9715481556
5.28340225872,1.4678351134,29.9678534856
4.19976565837,1.93706109439,28.291766202
4.19867559001,1.94240130741,28.28923431
4.19815102928,1.94764376717,28.2875515405
4.19930822266,1.95271166985,28.2883737822
4.20104134175,1.95777104661,28.2900449733
4.20336861426,1.96284840924,28.2925873291
4.20631503378,1.96797111803,28.2960328736
4.20931410455,1.97318536741,28.2995399885
4.21175957649,1.97850163899,28.3022147626
4.21424051507,1.98389501237,28.304928329
4.21489419939,1.98933216815,28.3049455047
4.21555026242,1.99478910942,28.304962743
4.21558741981,2.0002344235,28.304071289
4.21438860573,2.00559729539,28.3013754419
4.21381093058,2.01097205076,28.2995915286
4.21323534236,2.01632738904,28.2978140601
4.21388484192,2.02180355613,28.2978182997
4.21515382872,2.02738013958,28.2987166602
4.21768229968,2.03318053186,28.3014294498
4.21961246385,2.03896319814,28.3032649179
4.22028568598,2.0445820043,28.3032792813
4.21968759886,2.04997402955,28.3014623314
4.21720521464,2.05494959653,28.2969450205
4.21537636815,2.05999268652,28.2933776505
4.21541345806,2.06542811101,28.2924878156
4.21669264373,2.07118406078,28.2933700184
4.21798119026,2.07698213157,28.294258677
4.21927920077,2.08282278743,28.2951538626
4.21995057141,2.0885119395,28.2951532789
4.22062441665,2.09422206112,28.295152693
4.22130075019,2.09995326846,28.2951521049
4.22006327393,2.10502818662,28.2924493992
4.2194666934,2.11029932146,28.2906556711
4.2188722997,2.11555113433,28.2888685182
4.21828008084,2.12078373128,28.2870879043
4.21831744216,2.12625893124,28.2861915577
4.2189845891,2.1320068392,28.2861745499
4.22676440455,2.14096764938,28.296065505
4.23013277936,2.14812401699,28.2997786008
4.23220010664,2.1547607726,28.3016675036
4.23429116855,2.16147372361,28.3035780926
4.23571167407,2.1679082185,28.3045503478
4.23505878765,2.17329123002,28.3026543276
4.23440839978,2.17865364107,28.3007655633
4.24003943904,2.18751179,28.3075124567
4.2393705617,2.19291942183,28.3055886282
4.23800110592,2.19789004455,28.3027098376
4.23734002821,2.20324638328,28.3008063984
4.23598626445,2.20814869047,28.2979625683
4.23464286224,2.21301347599,28.2951405046
4.23330970308,2.21784116896,28.2923399583
4.23198667024,2.22263219201,28.2895606842
4.23067364881,2.22738696136,28.2868024409
4.22937052557,2.23210588696,28.2840649906
4.22874184862,2.23726687925,28.2822431704
4.22745329212,2.24192224425,28.2795381986
4.22683172925,2.24703591363,28.2777350691
4.22490494098,2.25112906191,28.2741886326
4.22364493313,2.25568128485,28.2715435909
4.22303731326,2.26071274894,28.2697752617
4.22179115563,2.26520447907,28.2671611111
4.22119029913,2.27019065783,28.2654106025
4.22059164918,2.27515852561,28.2636665224
4.21936355919,2.27956453023,28.2610938531
4.21751960404,2.28339075568,28.2577156827
4.21693414417,2.28828051508,28.2560045831
4.21635080702,2.29315254546,28.2542996874
4.21515356599,2.29743783334,28.2517933867
4.21457659473,2.30226699868,28.2501053062
4.2133921816,2.30649644004,28.247627585
4.2122162496,2.31069559597,28.2451676058
4.21164968231,2.31545792271,28.2435064479
4.20988946722,2.31900434345,28.2403001166
4.20933104927,2.32371812949,28.2386593844
4.20818403078,2.32780442074,28.2362615614
4.20763157935,2.33247771789,28.2346366439
4.20591415807,2.33589091723,28.2315164306
4.20479113475,2.3398917249,28.2291687691
4.20367594269,2.34386463344,28.2268374788
4.20313902821,2.34844491702,28.225251585
4.20203536869,2.35236748812,28.2229460108
4.20150408312,2.35690926184,28.221375091
4.19985085998,2.36013155903,28.218382514
4.19932698426,2.36462874766,28.2168302444
4.19769624479,2.3677893839,28.2138814654
4.19662995617,2.37157913326,28.2116539601
4.19557091368,2.37534312877,28.2094415921
4.19451904372,2.37908163204,28.2072442078
4.19347427367,2.38279490118,28.2050616553
4.19243653187,2.38648319083,28.2028937851
4.19140574766,2.39014675219,28.2007404494
4.19091002928,2.39447331097,28.1992592602
4.19041596712,2.39878541442,28.1977830197
4.18939877619,2.40238361115,28.1956610436
4.18890968974,2.40666106327,28.1941981455
4.18842222652,2.41092431898,28.1927401027
4.18741836027,2.41445855621,28.1906488467
5.23001991478,1.14907621146,29.9066436667
5.28051247341,1.14033600416,29.9810484221
5.2911867532,1.15642900891,29.9936640121
5.29133960102,1.17882843992,29.9899969947
5.30217602017,1.1953330665,30.0027751973
5.3023300206,1.21790140876,29.9990805274
5.29179814447,1.24602673295,29.9789959424
5.29195099229,1.26842616395,29.975328925
5.2921038401,1.29082559496,29.9716619076
5.34736563796,1.28718843046,30.0520655419
4.20337467899,1.93683381008,28.2879211632
4.20284199692,1.94208589202,28.2862406633
4.20231115292,1.94731985116,28.2845659621
4.20348074748,1.95237785837,28.2853764425
4.20465846972,1.95747101438,28.2861925552
4.20700291119,1.96252851234,28.2886990572
4.20997100106,1.9676303163,28.2920981281
4.21359530915,1.97280491305,28.2964318393
4.21606715383,1.97810889941,28.2990794717
4.21795370056,1.98348868045,28.3008690509
4.2192351395,1.98891623426,28.3017768439
4.21927216217,1.99434180501,28.3008886222
4.21930918483,1.99976737577,28.3000004004
4.21872260544,2.00515268092,28.2982189754
4.21751897009,2.01046880807,28.2955588149
4.21693877997,2.01580577479,28.2937950027
4.21821192297,2.02133047103,28.2946739602
4.21949429816,2.02689522955,28.2955592915
4.22204985662,2.03268148764,28.2982440643
4.22400053546,2.03845078694,28.3000586154
4.22468059125,2.04405831441,28.3000670542
4.22407553252,2.04944140055,28.2982593388
4.22156568009,2.05441178161,28.2937736155
4.21971643416,2.05944865409,28.2902299608
4.2185070343,2.06457823169,28.2875938566
4.21916607347,2.07014171314,28.2875796019
4.22108326544,2.07606300036,28.2893194343
4.22238549449,2.08186830222,28.2901916765
4.2243380222,2.08790854819,28.2919618708
4.22566424757,2.09381100554,28.2928518901
4.22570188431,2.09932656741,28.2919489359
4.22445051778,2.1043944686,28.2892629559
4.22384698968,2.10965710394,28.2874783556
4.22260925307,2.11465951193,28.2848234179
4.22264654616,2.12012471355,28.2839287082
4.22268383926,2.12558991517,28.2830339984
4.22335775381,2.13132608365,28.2830112451
4.23122117808,2.14025485205,28.2928126946
4.23394701585,2.14708105322,28.2955627786
4.23740294249,2.1543364221,28.2992922851
4.23952387081,2.16104693717,28.3011892394
4.24166928972,2.16783493928,28.303108098
4.24170859241,2.17359464149,28.3021651755
4.24034067372,2.17860124328,28.2993215875
4.24463469625,2.1866824565,28.3041175811
4.24467430384,2.19248684128,28.3031673436
4.24328435489,2.19745913545,28.3002979086
4.24190510586,2.20239315254,28.2974505628
4.24053643369,2.20728933286,28.2946250519
4.23917821716,2.21214810995,28.2918211259
4.23852245644,2.21741600958,28.2899602122
4.23717962624,2.22220864733,28.2871899761
4.23516511693,2.22650425941,28.2835364114
4.23452433455,2.23168553516,28.281712154
4.23388596289,2.23684731817,28.2798947597
4.23190877707,2.24102060932,28.2763163029
4.23128005616,2.24612641471,28.2745225553
4.2299916444,2.25071418334,28.2718664314
4.22871278331,2.25526794397,28.2692299966
4.2274433671,2.25978807336,28.2666130329
4.22683098656,2.26479342348,28.2648603083
4.22622085902,2.2697803584,28.2631140321
4.2243291482,2.27368128271,28.2597062337
4.22309190997,2.27807661032,28.2571573807
4.22186365985,2.28244000736,28.2546270443
4.22127138612,2.28732262584,28.2529246459
4.22068125594,2.29218757321,28.2512284089
4.22009325769,2.29703494525,28.2495382998
4.21888685481,2.30129083237,28.2470581601
4.21768910601,2.30551619005,28.2445958116
4.21649991852,2.3097113456,28.2421510635
4.21592672078,2.31446693312,28.2404982497
4.2147501394,2.3186079003,28.2380811039
4.21358189355,2.32271953068,28.2356810826
4.21242189495,2.32680213492,28.2332980042
4.21127005658,2.33085601931,28.23093169
4.21071509698,2.33549934601,28.2293246876
4.20899051851,2.33887883225,28.2262486517
4.20844340287,2.34347579279,28.2246610197
4.20731939556,2.34742244409,28.2223534921
4.20620317209,2.35134176451,28.2200619443
